88.40390015 21.24909973 28.53549957 0.831935 0.090521 0.547439
88.44609833 21.26650238 28.53459930 0.645419 -0.752740 -0.129680
88.45629883 21.29329681 28.53840065 0.647425 -0.637439 0.417747
88.75555420 21.30589676 28.53544998 0.048248 -0.998831 0.003080
88.69010162 21.31529999 28.53560066 -0.788330 -0.614082 0.037941
88.44540405 21.32530212 28.53100014 0.443255 0.885075 -0.142014
88.77880096 21.32679749 28.53610039 -0.666898 -0.689288 0.283072
88.67679596 21.33999634 28.53429985 -0.598498 -0.799412 -0.052351
88.66940308 21.35900116 28.53199959 -0.394330 -0.899880 -0.186332
88.69259644 21.35610199 28.53619957 -0.592856 -0.788966 -0.161414
88.47489929 21.37390137 28.53860092 0.560573 -0.827774 0.023415
88.50109863 21.37079620 28.53000069 -0.304101 -0.931922 0.197596
88.59130096 20.95130157 28.54780006 -0.084868 0.995264 -0.047394
88.57789612 20.98539734 28.54229927 0.131305 0.902194 0.410858
88.67639923 20.98889923 28.54290009 -0.374154 0.889920 0.260864
88.50669861 20.99099731 28.54579926 0.469710 0.879486 -0.076659
88.44680023 21.00499725 28.54129982 0.889544 0.456142 -0.025416
88.52459717 21.00009918 28.54980087 0.449658 0.871120 0.197375
88.73270416 21.01779938 28.54899979 -0.963184 0.245618 0.109307
88.75879669 21.01409912 28.54719925 -0.684767 -0.477161 -0.550828
88.68830109 21.03919983 28.54549980 -0.769625 0.633894 0.076529
88.72060394 21.06099701 28.54450035 -0.862980 0.318426 -0.392264
88.78019714 21.07160187 28.54070091 -0.873927 0.401370 -0.274143
88.40480042 21.09690094 28.54809952 0.961573 0.118088 0.247855
88.43740082 21.11640167 28.54210091 0.913711 0.328704 0.238926
88.75749969 21.11289978 28.54319954 -0.881197 0.399456 0.252839
88.39060211 21.12110138 28.54969978 0.894983 0.255921 0.365390
88.40419769 21.14630127 28.54560089 0.680451 -0.476483 0.556732
88.44480133 21.14019775 28.54389954 0.842157 0.393634 0.368542
88.74009705 21.17179871 28.54640007 -0.935511 -0.048142 0.350003
88.38050079 21.19280243 28.54290009 0.990484 0.098469 -0.096152
88.43779755 21.21710205 28.54739952 0.845571 0.069170 -0.529364
88.79209900 21.21679688 28.54730034 -0.898771 0.399614 -0.180331
88.76419830 21.23449707 28.54190063 -0.996521 -0.064116 -0.053249
88.43840027 21.24520111 28.54669952 0.781135 -0.612799 -0.119607
88.74759674 21.25489807 28.54260063 -0.757295 -0.474747 0.448463
88.41320038 21.28839874 28.54409981 0.578658 -0.760385 -0.294908
88.43319702 21.29049683 28.54220009 0.983673 -0.179787 -0.008016
88.77089691 21.29470062 28.54840088 -0.860852 -0.054063 -0.505976
88.79149628 21.29450226 28.54000092 -0.993971 -0.079742 -0.075250
88.73519897 21.30039978 28.54610062 -0.654939 -0.744452 -0.129794
88.48149872 21.31890106 28.54929924 0.581206 -0.803041 0.131622
88.74160004 21.32579803 28.54780006 -0.465926 -0.865291 -0.184891
88.51819611 21.34700012 28.54120064 0.555722 -0.830084 -0.046194
88.48729706 21.35820007 28.54789925 0.766558 -0.572130 0.291643
88.56829834 21.35769653 28.54940033 0.179904 -0.919353 -0.349892
88.60209656 21.35060120 28.54759979 -0.177191 -0.795087 -0.580035
88.55039978 21.36160278 28.54030037 0.306641 -0.931125 -0.197427
88.64179993 21.36150360 28.54369926 -0.234698 -0.969838 0.065815
88.61859894 21.37539673 28.54249954 -0.252849 -0.953868 -0.161877
88.49400330 21.38490295 28.54269981 -0.353116 -0.836494 -0.419031
88.56469727 21.38739777 28.54910088 0.172967 -0.888094 -0.425878
88.64039612 21.38220215 28.54159927 -0.304322 -0.942723 -0.136607
88.59809875 21.39089966 28.54829979 -0.222351 -0.890875 -0.396108
88.53420258 20.96829987 28.55120087 -0.130246 0.972422 0.193473
88.61849976 20.96990204 28.55380058 -0.480581 0.876827 -0.014725
88.55879974 20.97820282 28.55830002 0.081818 0.994143 0.070610
88.48169708 21.00599670 28.55050087 0.727973 0.674380 -0.123562
88.54789734 21.00080109 28.55200005 -0.195033 0.967417 0.161451
88.62390137 21.00060272 28.55550003 -0.360994 0.932462 -0.014032
88.66079712 21.00039673 28.55369949 -0.298213 0.879501 -0.370874
88.70909882 21.00270081 28.55100060 -0.362726 0.836939 0.409833
88.44270325 21.02619934 28.54999924 0.702174 0.696134 0.149495
88.71260071 21.03820038 28.55260086 -0.846938 0.512273 0.142380
88.41960144 21.04959869 28.55970001 0.721755 0.659668 0.209542
88.45719910 21.04260254 28.55200005 0.663567 0.673301 0.326105
88.42359924 21.06739807 28.55050087 0.755214 0.655442 -0.006929
88.74639893 21.06330109 28.55859947 -0.688514 0.706753 0.162629
88.70610046 21.07440186 28.55319977 -0.712082 0.687995 -0.140008
88.73560333 21.08959961 28.55030060 -0.537462 0.838440 0.090294
88.38690186 21.09159851 28.55800056 0.940382 0.333515 0.066703
88.45980072 21.10359955 28.55240059 0.974374 -0.198368 -0.106046
88.77799988 21.10489655 28.55839920 -0.897439 0.429936 0.098788
88.80010223 21.11299896 28.55839920 -0.801020 0.574743 0.167445
88.78630066 21.14209747 28.55100060 -0.988444 -0.114006 -0.099902
88.37390137 21.16400146 28.55820084 0.950182 0.295700 -0.098567
88.74860382 21.19750214 28.55019951 -0.993375 -0.009814 -0.114494
88.41079712 21.20290375 28.55800056 0.909772 0.404800 0.091938
88.39900208 21.22139740 28.55870056 0.814451 -0.451056 0.364989
88.37760162 21.23269653 28.55750084 0.658293 -0.113907 0.744093
88.41120148 21.24690247 28.55459976 0.749665 -0.405180 0.523289
88.77559662 21.25379944 28.55179977 -0.948945 -0.140535 -0.282408
88.73300171 21.27410126 28.55130005 -0.633910 -0.714151 -0.296894
88.76380157 21.27600098 28.55649948 -0.805151 -0.504603 -0.311620
88.39949799 21.30740356 28.55730057 0.506018 0.667406 0.546365
88.45800018 21.33339691 28.55830002 0.870584 -0.491481 -0.023017
88.50199890 21.34999847 28.55909920 0.270989 -0.946418 -0.175666
88.67279816 21.34619904 28.55920029 -0.409241 -0.909576 -0.072059
88.70850372 21.34040070 28.55850029 -0.512925 -0.852002 -0.104884
88.52380371 21.35669708 28.55809975 0.169235 -0.967611 -0.187321
88.58499908 21.37799835 28.55929947 0.304814 -0.810206 -0.500654
88.54599762 21.40760040 28.55380058 0.621704 -0.628407 -0.467535
88.55950165 20.94909668 28.56259918 0.169055 0.926307 0.336712
88.47940063 20.97989655 28.56480026 0.563166 0.826252 0.012332
88.60130310 20.98760223 28.56850052 -0.181323 0.972553 -0.145819
88.71720123 20.98079681 28.56830025 -0.237816 0.700848 0.672499
88.45449829 21.00779724 28.56030083 0.904742 0.425216 -0.025169
88.57920074 21.00199890 28.56620026 -0.068291 0.871063 0.486401
88.68560028 21.00810242 28.56480026 -0.256967 0.954637 0.150452
88.74900055 21.00350189 28.56920052 -0.347565 0.403674 -0.846313
88.48040009 21.02670288 28.56329918 0.489392 0.832120 0.260906
88.50299835 21.02089691 28.56049919 0.670932 0.674165 0.308790
88.63300323 21.02919769 28.56819916 0.023017 0.999731 0.003002
88.69899750 21.02610016 28.56469917 -0.568025 0.812940 0.128359
88.44770050 21.04630280 28.56990051 0.788383 0.608347 0.091470
88.72789764 21.04219818 28.56669998 -0.938086 -0.178223 -0.297038
88.44409943 21.06880188 28.56259918 0.970851 0.020401 0.238813
88.72599792 21.07299805 28.56940079 -0.829903 0.467309 0.304767
88.41539764 21.08969879 28.56719971 0.756712 0.609443 0.236570
88.38334656 21.11849976 28.56869888 0.965764 0.191073 0.175475
88.40679932 21.13279724 28.56469917 0.927161 0.067841 0.368470
88.39440155 21.14859772 28.56349945 0.974021 -0.075305 0.213569
88.77210236 21.15329742 28.56180000 -0.959709 -0.240255 0.145729
88.43289948 21.17189789 28.56150055 0.935427 -0.296056 0.193201
88.38639832 21.19100189 28.56800079 0.996860 0.079116 -0.003165
88.36009979 21.20980072 28.56859970 0.969230 0.243224 -0.037889
88.77030182 21.20439911 28.56030083 -0.959356 0.280998 -0.025995
88.75749969 21.22820282 28.56299973 -0.989301 0.005564 0.145780
88.37200165 21.26010132 28.56419945 0.463831 -0.238759 0.853144
88.44540405 21.26760101 28.56060028 0.743303 -0.476307 -0.469715
88.40260315 21.27719879 28.56419945 0.524160 0.099088 0.845836
88.44899750 21.29730225 28.56629944 0.883345 -0.455142 -0.112013
88.72369385 21.29150009 28.56509972 -0.784095 -0.503946 -0.362262
88.46700287 21.30999756 28.56730080 0.844996 -0.367050 -0.388917
88.77999878 21.32319641 28.56010056 -0.390558 -0.484551 -0.782736
88.60219574 21.33380127 28.56380081 -0.119941 -0.617473 -0.777394
88.46520233 21.35810089 28.56599998 0.893891 -0.396472 0.209209
88.58200073 21.35479736 28.56850052 0.003641 -0.959898 -0.280324
88.65879822 21.36450195 28.56290054 -0.264633 -0.940762 -0.211983
88.54409790 21.37329865 28.56010056 0.255856 -0.924796 -0.281584
88.61949921 21.37039948 28.56959915 -0.350517 -0.870936 -0.344395
88.57759857 21.39700317 28.56609917 0.572939 -0.676502 -0.462694
88.53659821 20.95719910 28.57640076 0.193804 0.976425 0.095050
88.58899689 20.95860291 28.57570076 -0.306349 0.913239 0.268600
88.63169861 20.96790314 28.57390022 -0.468707 0.876155 -0.112547
88.51729584 20.97810364 28.57600021 0.308075 0.865983 0.393907
88.56349945 20.97440338 28.57939911 -0.005184 0.998360 0.057020
88.54290009 20.98259735 28.57810020 0.155303 0.776516 0.610658
88.63980103 20.98860168 28.57970047 -0.403862 0.914819 -0.001290
88.66829681 20.99600220 28.57379913 -0.278476 0.958914 -0.054183
88.47850037 21.00550079 28.57049942 0.415550 0.848219 0.328393
88.63369751 21.00949860 28.57439995 -0.618785 0.783795 -0.052632
88.43730164 21.01609802 28.57909966 0.743794 0.653637 0.139743
88.46060181 21.01309967 28.57929993 0.492878 0.814115 0.307065
88.66600037 21.01820374 28.57060051 -0.244491 0.969616 -0.008348
88.72530365 21.01460266 28.57699966 -0.741950 0.429377 -0.514923
88.40170288 21.06459808 28.57939911 0.753462 0.604981 0.257472
88.76290131 21.07649994 28.57859993 -0.902681 0.429405 -0.027918
88.45189667 21.08820343 28.57449913 0.987330 -0.057118 0.148041
88.74620056 21.10260010 28.57519913 -0.938915 0.310238 -0.148969
88.41719818 21.11470032 28.57799911 0.679987 0.726984 -0.095462
88.77330017 21.11039734 28.57729912 -0.958721 0.116090 -0.259572
88.40119934 21.16960144 28.57130051 0.892078 0.364873 -0.266581
88.42279816 21.17289734 28.57939911 0.965194 -0.235194 0.114384
88.77020264 21.17489624 28.57859993 -0.982763 -0.184051 -0.017363
88.38780212 21.21099854 28.57579994 0.986887 -0.131506 -0.093594
88.34420013 21.23660278 28.57719994 0.112729 0.060350 0.991791
88.46440125 21.24800110 28.57119942 0.948718 -0.315402 0.021362
88.39589691 21.25409698 28.57340050 0.909646 -0.358957 -0.209031
88.75869751 21.25060272 28.57769966 -0.817921 -0.572967 -0.052088
88.34690094 21.26129913 28.57959938 0.041029 -0.756917 0.652222
88.76699829 21.27839661 28.57749939 -0.455235 -0.840554 -0.293650
88.41760254 21.28340149 28.57819939 0.588136 -0.655160 -0.474195
88.70750427 21.29740143 28.57789993 -0.530452 -0.827986 -0.181826
88.74990082 21.29229736 28.57620049 -0.563625 -0.597476 -0.570395
88.44429779 21.32890320 28.57990074 0.848460 -0.528750 0.023227
88.49189758 21.33419800 28.57119942 0.456187 -0.889764 -0.014630
88.51290131 21.33110046 28.57929993 0.375689 -0.909938 -0.175702
88.69519806 21.34649658 28.57929993 -0.477663 -0.810916 -0.338014
88.52510071 21.35659790 28.57909966 -0.041901 -0.990893 0.127967
88.55359650 21.35099792 28.57439995 0.255009 -0.937822 -0.235501
88.62850189 21.35250092 28.57279968 -0.106248 -0.912076 -0.396015
88.50029755 21.37870026 28.57379913 -0.123874 -0.987455 0.097920
88.56590271 21.37069702 28.57530022 0.316173 -0.859066 -0.402543
88.58560181 21.37149811 28.57939911 -0.196404 -0.979638 0.041661
88.60499573 21.40989685 28.57509995 -0.255294 -0.871626 -0.418441
88.56179810 20.93430328 28.58979988 -0.096440 0.992769 -0.071479
88.51349640 20.95800018 28.58819962 0.177453 0.971521 0.157026
88.48650360 20.97989655 28.58480072 0.364628 0.879042 0.307135
88.61724854 20.98500061 28.58359909 -0.333512 0.924546 0.184346
88.68830109 20.98519897 28.58699989 -0.075008 0.940891 0.330299
88.50509644 21.00479889 28.58169937 0.550435 0.808021 0.210055
88.48139954 21.01580048 28.58740044 0.391756 0.835431 0.385463
88.70349884 21.02459717 28.58769989 -0.515404 0.856258 -0.034360
88.46019745 21.03420258 28.58009911 0.617158 0.566432 0.546142
88.74510193 21.04869843 28.58569908 -0.839162 0.540166 0.063466
88.42120361 21.05449677 28.58460045 0.863088 0.295872 0.409315
88.42590332 21.09545135 28.58325005 0.827057 0.499326 0.258166
88.38700104 21.11930084 28.58970070 0.926515 0.205106 0.315439
88.44730377 21.11029816 28.58720016 0.785691 0.570987 0.238041
88.78769684 21.13629913 28.58510017 -0.918870 -0.054679 -0.390753
88.38189697 21.15519714 28.58429909 0.986863 0.076455 0.142325
88.41459656 21.15229797 28.58060074 0.894565 -0.237274 0.378753
88.39340210 21.19110107 28.58799934 0.956375 0.172067 -0.236093
88.76290131 21.19750214 28.58130074 -0.990929 0.111638 -0.074809
88.78720093 21.20950317 28.58029938 -0.957659 0.285924 -0.033712
88.38749695 21.22640228 28.58959961 0.970633 -0.167527 -0.172642
88.73670197 21.22000122 28.58289909 -0.920470 -0.046355 -0.388054
88.43699646 21.24359894 28.58079910 0.641371 0.735002 -0.220033
88.41870117 21.25930023 28.58049965 0.617960 -0.784823 0.046665
88.44930267 21.26339722 28.58259964 0.996315 0.001059 0.085761
88.44499969 21.29620361 28.58830070 0.794850 -0.562438 0.227764
88.63089752 21.29239655 28.58639908 -0.340379 0.200809 -0.918596
88.67340088 21.29699707 28.58069992 0.114005 0.050794 -0.992181
88.68820190 21.31829834 28.58160019 -0.668012 -0.696574 -0.261810
88.63580322 21.32820129 28.58200073 -0.181151 -0.452142 -0.873356
88.73049927 21.32279968 28.58279991 -0.709922 -0.649300 -0.272802
88.70760345 21.33080292 28.58760071 -0.678651 -0.730744 0.073798
88.57199860 21.34989929 28.58650017 0.017652 -0.977908 -0.208291
88.67050171 21.34980011 28.58410072 -0.361048 -0.730264 -0.579964
88.64540100 21.36699677 28.58480072 -0.285597 -0.862899 -0.416941
88.67240143 21.37640381 28.58559990 -0.330641 -0.903752 -0.271860
88.60839844 21.38020325 28.58639908 -0.314998 -0.906901 -0.279835
88.56610107 20.95369720 28.59760094 -0.156964 0.983723 -0.087469
88.47699738 20.96690369 28.59889984 0.152588 0.753874 0.639055
88.60559845 20.97540283 28.59860039 -0.303132 0.950675 0.065786
88.70960236 20.97409821 28.59729958 -0.785306 0.569854 -0.241993
88.45330048 20.98729706 28.59149933 0.826006 0.530033 0.191778
88.50299835 20.98940277 28.59480095 0.354059 0.922232 0.155338
88.57250214 20.98269653 28.59930038 -0.054571 0.976221 0.209797
88.66310120 21.01550293 28.59160042 -0.203400 0.907366 0.367851
88.68409729 21.02529907 28.59460068 -0.525132 0.773964 -0.353858
88.42929840 21.03250122 28.59490013 0.713137 0.698788 0.055960
88.40219879 21.05079651 28.59550095 0.813937 0.566665 0.128052
88.72399902 21.05200195 28.59860039 -0.730254 0.683141 0.006928
88.76640320 21.05059814 28.59889984 -0.527406 0.840052 -0.127103
88.77429962 21.06980133 28.59770012 -0.961812 0.267799 -0.056577
88.74199677 21.07769775 28.59840012 -0.991772 -0.030257 0.124392
88.39559937 21.09649658 28.59799957 0.923751 0.279274 0.262088
88.75620270 21.14839935 28.59880066 -0.900217 0.075361 -0.428871
88.39260101 21.16809845 28.59729958 0.981423 -0.135664 0.135664
88.37449646 21.18730164 28.59490013 0.956692 -0.242822 -0.160554
88.43019867 21.18730164 28.59230042 0.718944 -0.598305 0.353766
88.75499725 21.18560028 28.59840012 -0.810494 -0.219925 -0.542893
88.39029694 21.25920105 28.59630013 0.853380 -0.465342 -0.234945
88.77950287 21.25330353 28.59079933 -0.969785 -0.243934 -0.003570
88.72789764 21.27279663 28.59830093 -0.695302 -0.679606 -0.233860
88.70649719 21.28459930 28.59869957 -0.805583 -0.553935 -0.210219
88.72519684 21.29940033 28.59600067 -0.738525 -0.664525 -0.113961
88.60410309 21.30889893 28.59810066 -0.898533 -0.426209 -0.104806
88.66809845 21.31559753 28.59930038 -0.429708 -0.848558 -0.308707
88.46800232 21.32520294 28.59410095 0.552261 -0.830521 0.072404
88.52169800 21.34529877 28.59919930 0.311396 -0.931394 -0.188513
88.54370117 21.34819794 28.59239960 -0.015557 -0.970516 -0.240535
88.59580231 21.34980011 28.59670067 -0.299343 -0.926403 -0.228409
88.63610077 21.35179901 28.59889984 -0.235774 -0.869512 -0.434005
88.47859955 21.36669922 28.59499931 0.786196 -0.616207 0.046747
88.53389740 21.37429810 28.59300041 -0.190593 -0.975388 0.110868
88.49490356 21.39099884 28.59259987 -0.043955 -0.636632 0.769914
88.52729797 20.94930267 28.60639954 0.337173 0.766301 0.546897
88.58370209 20.96510315 28.60759926 -0.163073 0.986423 -0.019386
88.46260071 20.98400116 28.60960007 0.542218 0.820123 0.182753
88.54969788 20.98130035 28.60020065 0.113194 0.982229 -0.149708
88.63369751 20.98149872 28.60470009 -0.473827 0.863517 0.172703
88.48310089 20.99459839 28.60359955 0.400127 0.916251 0.019550
88.44429779 21.00424957 28.60025024 0.659524 0.688549 0.301543
88.49690247 21.00830078 28.60960007 0.038622 0.960571 0.275339
88.63890076 21.00499725 28.60750008 -0.537196 0.828859 0.156248
88.69319916 21.00170135 28.60589981 -0.610117 0.633647 0.475656
88.44999695 21.03160095 28.60199928 0.856357 0.428947 0.287502
88.42430115 21.06629944 28.60350037 0.795696 0.247585 0.552783
88.37889862 21.07060242 28.60820007 0.746185 0.606176 0.275245
88.35710144 21.11229706 28.60059929 0.952459 0.016143 0.304240
88.43330383 21.11360168 28.60910034 0.698633 0.531895 0.478539
88.40499878 21.12270355 28.60479927 0.803468 0.463477 0.373669
88.73279572 21.12180328 28.60589981 -0.999807 -0.005004 0.019015
88.77629852 21.14479828 28.60689926 -0.956532 -0.083680 -0.279364
88.77584839 21.19115067 28.60420036 -0.892454 0.247164 -0.377406
88.40190125 21.21679688 28.60280037 0.978955 -0.029522 -0.201932
88.45249939 21.21499634 28.60650063 0.996086 -0.088234 0.005315
88.79170227 21.23410034 28.60610008 -0.962294 -0.251201 -0.104345
88.41210175 21.24359894 28.60960007 0.727459 -0.684918 -0.041123
88.44020081 21.24240112 28.60479927 0.755342 -0.215590 0.618853
88.76029968 21.25920105 28.60869980 -0.660886 -0.614274 -0.431157
88.45470428 21.27539825 28.60750008 0.910660 -0.412989 0.011725
88.43769836 21.28720093 28.60829926 0.974976 -0.208307 -0.077653
88.41049957 21.29830170 28.60799980 0.586496 -0.686184 0.430319
88.60949707 21.29109955 28.60939980 -0.470754 0.594725 -0.651685
88.49240112 21.31490326 28.60639954 0.344660 -0.929620 -0.130449
88.70610046 21.31829834 28.60969925 -0.522358 -0.852411 0.023186
88.56130219 21.35949707 28.60840034 0.156942 -0.985315 -0.067261
88.61150360 21.35870361 28.60569954 -0.255901 -0.941993 -0.217170
88.50640106 21.37470245 28.60280037 -0.052600 -0.904998 -0.422152
88.58750153 21.37779999 28.60129929 0.068577 -0.968805 -0.238149
88.54679871 20.96540070 28.61529922 0.165044 0.942524 -0.290532
88.66190338 20.96890259 28.61899948 -0.048349 0.860606 0.506970
88.51300049 20.97000122 28.61809921 0.190279 0.980117 0.056246
88.51180267 20.99410248 28.61580086 0.553724 0.793931 -0.251125
88.59929657 20.99649811 28.61440086 -0.135555 0.990764 0.003306
88.66764832 21.00740051 28.61370087 -0.408631 0.911766 -0.041262
88.40820313 21.02649689 28.61779976 0.768122 0.596736 0.232151
88.43280029 21.04930115 28.61269951 0.838418 0.538473 0.084270
88.43630219 21.07180023 28.61949921 0.951732 -0.044473 0.303690
88.41380310 21.08470154 28.61829948 0.985830 0.129934 0.106093
88.75440216 21.12149811 28.61610031 -0.925156 0.297932 -0.235209
88.38829803 21.13590240 28.61059952 0.943965 -0.277315 0.178957
88.37470245 21.15339661 28.61529922 0.975568 -0.217984 -0.027397
88.73999786 21.16449738 28.61549950 -0.888683 0.014612 -0.458289
88.76589966 21.16670227 28.61569977 -0.838876 -0.226847 -0.494800
88.40560150 21.17199707 28.61730003 0.920261 -0.286592 0.266429
88.40470123 21.19390106 28.61409950 0.979993 0.073711 -0.184881
88.73320007 21.19570160 28.61310005 -0.680133 -0.395503 -0.617249
88.77190399 21.21679688 28.61520004 -0.708726 0.347031 -0.614229
88.71659851 21.22180176 28.61079979 -0.888909 -0.363033 0.279371
88.75679779 21.23680115 28.61389923 -0.419467 -0.003896 -0.907762
88.77619934 21.24919891 28.61590004 -0.589070 -0.656200 -0.471591
88.72930145 21.25019836 28.61560059 -0.770896 -0.578566 0.266424
88.74009705 21.28900146 28.61319923 -0.797443 -0.551837 -0.244052
88.47270203 21.31790161 28.61820030 0.685225 -0.086201 -0.723212
88.43540192 21.32620239 28.61989975 0.690301 -0.702546 -0.172958
88.48670197 21.33869934 28.61510086 0.188564 -0.825156 -0.532505
88.63390350 21.33290100 28.61709976 -0.066941 -0.977338 -0.200823
88.66699982 21.33499908 28.61730003 -0.326543 -0.943202 -0.061146
88.53019714 21.34860229 28.61730003 0.055670 -0.991834 -0.114748
88.65010071 21.35030365 28.61899948 -0.231749 -0.852777 -0.468043
88.56999969 21.39309692 28.61100006 0.079193 -0.978335 -0.191281
88.49330139 20.93389893 28.62829971 0.400432 0.849166 0.344341
88.58300018 20.94950104 28.62770081 -0.187691 0.979626 0.071444
88.61250305 20.95520020 28.62190056 -0.165775 0.895185 0.413717
88.48490143 20.96759796 28.62490082 0.688701 0.595768 0.413221
88.56719971 20.96669769 28.62450027 -0.070455 0.989830 -0.123584
88.64109802 20.97000122 28.62989998 -0.342722 0.822849 0.453278
88.69380188 20.97280121 28.62820053 -0.365513 0.930042 -0.037722
88.63200378 20.98789978 28.62870026 -0.624176 0.781253 -0.006889
88.52980042 20.99389648 28.62789917 0.268938 0.961921 0.048784
88.56199646 20.99539948 28.62210083 -0.021140 0.953801 -0.299695
88.46209717 21.00530243 28.62739944 0.548149 0.788260 0.279603
88.72270203 21.01129913 28.62599945 -0.922468 0.384905 0.030010
88.40795135 21.04550171 28.62765121 0.767741 0.577784 0.277020
88.70510101 21.04620361 28.62050056 -0.773609 0.460908 0.434849
88.73550415 21.05259705 28.62159920 -0.829109 0.524045 -0.194818
88.38490295 21.08529663 28.62109947 0.822690 0.470333 0.319323
88.75219727 21.08219910 28.62039948 -0.880189 0.183068 -0.437898
88.39119720 21.10710144 28.62290001 0.907875 -0.306536 0.286003
88.35299683 21.11129761 28.62759972 0.996997 -0.063592 -0.044191
88.39440155 21.15429688 28.62739944 0.954396 -0.006142 -0.298479
88.35340118 21.16840363 28.62299919 0.763114 0.600149 0.239746
88.37899780 21.17639923 28.62310028 0.953483 -0.301424 -0.003691
88.76020050 21.19059753 28.62739944 -0.786340 -0.224890 -0.575408
88.39530182 21.21050262 28.62380028 0.952358 -0.286886 -0.103489
88.73439789 21.21800232 28.62890053 -0.505898 -0.472724 0.721526
88.43140411 21.22650146 28.62789917 0.710472 -0.578598 0.400568
88.38220215 21.23660278 28.62050056 0.989124 0.085048 0.120000
88.43389893 21.25769806 28.62660027 0.801020 -0.574743 0.167445
88.39099884 21.27300262 28.62220001 0.909074 -0.308880 0.279602
88.75409698 21.27089691 28.62949944 -0.621361 -0.757043 0.201981
88.42479706 21.28510284 28.62929916 0.835203 -0.542954 -0.087388
88.50360107 21.29360199 28.62290001 0.649301 -0.655910 -0.384955
88.69940186 21.29530334 28.62989998 -0.788033 -0.154605 -0.595903
88.44190216 21.30670166 28.62409973 0.677244 -0.716814 -0.165887
88.61789703 21.31330109 28.62120056 -0.984459 0.149523 -0.092106
88.68759918 21.31739807 28.62560081 -0.324209 -0.930882 -0.168366
88.73059845 21.31510162 28.62190056 -0.917201 -0.395368 0.049255
88.54350281 21.32399750 28.62459946 0.325464 -0.942132 -0.080378
88.56839752 21.33519745 28.62770081 0.099118 -0.992316 0.074053
88.61530304 21.33779907 28.62890053 -0.271561 -0.962138 0.023347
88.45940399 21.34600067 28.62010002 0.507583 -0.792599 -0.337855
88.56579590 21.35600281 28.62940025 0.116506 -0.991998 0.048638
88.61419678 21.36190033 28.62570000 -0.367373 -0.834079 -0.411521
88.54100037 21.37809753 28.62299919 0.281895 -0.958443 -0.043850
88.58809662 21.37500000 28.62639999 -0.355374 -0.840687 -0.408602
88.53759766 20.95739746 28.63339996 0.340492 0.679356 0.650031
88.59739685 20.96589661 28.63570023 -0.069806 0.936458 0.343763
88.62090302 20.96440125 28.63780022 -0.309982 0.929945 0.197771
88.51650238 20.97010040 28.63809967 0.205602 -0.046892 0.977512
88.55360413 20.97604752 28.63879967 0.300897 0.953051 0.033993
88.51170349 20.99440002 28.63979912 0.019314 0.987264 0.157917
88.69120026 20.99369812 28.63199997 -0.376716 0.870869 -0.315709
88.43360138 21.00150299 28.63430023 0.730346 0.670604 0.129939
88.48580170 21.00160217 28.63759995 0.330521 0.882897 0.333539
88.45379639 21.02380371 28.63010025 0.621334 0.774823 0.116592
88.39189911 21.06510162 28.63829994 0.817429 0.333612 0.469587
88.42690277 21.06600189 28.63850021 0.942480 0.072095 0.326394
88.36329651 21.08950043 28.63590050 0.970423 0.238028 -0.040282
88.38809967 21.12310028 28.63570023 0.888705 -0.424781 -0.172522
88.74800110 21.12599945 28.63599968 -0.972831 0.112008 -0.202621
88.77480316 21.14540100 28.63290024 -0.948893 -0.106899 -0.296942
88.41059875 21.19200134 28.63409996 0.871065 -0.407507 0.274196
88.38659668 21.22419739 28.63859940 0.240419 0.917046 0.318159
88.40589905 21.24579620 28.63400078 0.940146 -0.340376 -0.016449
88.77010345 21.24210358 28.63890076 -0.351727 -0.931200 0.095680
88.71309662 21.26260376 28.63330078 -0.552287 -0.596200 -0.582688
88.67610168 21.28890228 28.63879967 -0.669399 -0.732015 -0.126724
88.71569824 21.28450012 28.63909912 -0.841760 -0.355828 -0.405989
88.48020172 21.29679871 28.63549995 0.562353 -0.801391 -0.203795
88.49009705 21.32240295 28.63050079 0.969723 -0.060685 -0.236548
88.65349579 21.32070160 28.63730049 -0.465363 -0.797075 -0.384850
88.46450043 21.33070374 28.63400078 0.411928 -0.892268 0.184858
88.58999634 21.33619690 28.63570023 -0.381171 -0.914531 -0.135434
88.71289825 21.33360291 28.63159943 -0.249068 -0.954983 -0.161162
88.63150024 21.34590149 28.63890076 -0.344629 -0.879031 -0.329447
88.66220093 21.34059906 28.63820076 -0.358323 -0.921601 -0.149185
88.50659943 21.35040283 28.63310051 0.309747 -0.819179 -0.482703
88.52349854 21.36479950 28.63809967 0.334206 -0.923651 -0.187550
88.53019714 20.92810059 28.64859962 -0.100554 0.990517 0.093619
88.50219727 20.94219971 28.64730072 0.149305 0.986355 0.069362
88.57779694 20.97260284 28.64649963 0.162800 0.891798 0.422128
88.46849823 20.98590088 28.64660072 0.465990 0.802272 0.373112
88.49199677 20.98429871 28.64879990 0.150890 0.808235 0.569200
88.60449982 20.98840332 28.64450073 -0.451694 0.802119 0.390611
88.53900146 20.99060059 28.64599991 0.084584 0.985226 -0.148916
88.56359863 20.99669647 28.64609909 -0.010633 0.974693 -0.223293
88.65599823 20.99859619 28.64170074 0.023787 0.754181 -0.656236
88.63359833 21.00219727 28.64850044 -0.682544 0.718546 0.133509
88.72070313 21.01629639 28.64990044 -0.681124 0.731682 0.026683
88.42990112 21.02410126 28.64399910 0.665691 0.697466 0.265323
88.65309906 21.03119659 28.64229965 0.142142 0.943552 -0.299175
88.72999573 21.03880310 28.64879990 -0.947080 0.152668 0.282368
88.38700104 21.08580017 28.64310074 0.883374 0.408282 0.230123
88.41490173 21.10710144 28.64599991 0.839080 0.243901 0.486268
88.74479675 21.10870361 28.64809990 -0.984475 0.124114 0.124114
88.37650299 21.13950348 28.64349937 0.949298 0.143265 -0.279835
88.76409912 21.13050079 28.64900017 -0.905867 -0.170297 -0.387820
88.41269684 21.15910339 28.64550018 0.948531 -0.217002 -0.230650
88.37210083 21.17240143 28.64909935 0.921598 0.387973 0.011601
88.39230347 21.17520142 28.64764977 0.811124 -0.584507 0.020727
88.74440002 21.23760223 28.64179993 -0.005439 -0.993188 0.116398
88.68039703 21.26640320 28.64080048 -0.775690 -0.346722 -0.527340
88.73600006 21.26200104 28.64749908 -0.686901 -0.686901 -0.237350
88.44930267 21.28209686 28.64640045 0.663510 -0.730316 -0.162461
88.44259644 21.30740356 28.64509964 0.174255 -0.580344 -0.795510
88.50830078 21.30750275 28.64069939 0.572051 -0.813681 -0.103348
88.47129822 21.31269836 28.64730072 0.376191 -0.820636 -0.430159
88.71959686 21.31189728 28.64189911 -0.513946 -0.853745 0.083534
88.51589966 21.33390045 28.64229965 0.566778 -0.823012 0.037600
88.68299866 21.33020020 28.64539909 -0.372815 -0.903750 -0.210343
88.54209900 21.35780334 28.64520073 0.665213 -0.726382 0.172802
88.57170105 21.35420227 28.64949989 -0.415299 -0.877075 -0.241383
88.60140228 21.35410309 28.64369965 -0.183014 -0.982678 0.029142
88.63719940 21.36499786 28.64179993 -0.423392 -0.904581 -0.049732
88.56739807 21.37390137 28.64319992 -0.267449 -0.833265 -0.483881
88.56510162 20.93859863 28.65870094 -0.312705 0.938116 0.148842
88.48370361 20.96019745 28.65800095 0.421933 0.793752 0.438099
88.61129761 20.96089935 28.65679932 -0.405372 0.891232 0.203418
88.64309692 20.96690369 28.65690041 -0.347694 0.933844 0.083926
88.67160034 20.96489716 28.65719986 -0.490353 0.871288 0.020263
88.45479584 20.97380066 28.65670013 0.618894 0.684909 0.384539
88.44560242 20.99759674 28.65439987 0.552842 0.556224 0.620468
88.51190186 21.00900269 28.65769958 -0.244540 0.964077 -0.103706
88.46030426 21.01170349 28.65430069 0.508319 0.790540 0.341552
88.66179657 21.01560211 28.65259933 -0.337839 0.859254 -0.384119
88.62460327 21.02749634 28.65519905 -0.555944 0.626916 0.545805
88.39260101 21.04920197 28.65550041 0.747070 0.651254 -0.133245
88.41529846 21.04709625 28.65870094 0.891655 0.449241 -0.055984
88.74770355 21.05020142 28.65979958 -0.942146 0.200016 0.268988
88.37214661 21.07464981 28.65309906 0.932820 0.357776 -0.042933
88.72709656 21.07499695 28.65740013 -0.864283 0.483708 -0.137995
88.42020416 21.08580017 28.65830040 0.800940 0.076212 0.593875
88.39440155 21.12629700 28.65570068 0.920070 0.094052 0.380296
88.41699982 21.12999725 28.65780067 0.897659 0.307133 -0.316035
88.72200012 21.12400055 28.65979958 -0.486400 0.539887 -0.686977
88.74019623 21.16989899 28.65349960 -0.809416 -0.424743 -0.405510
88.37670135 21.19680023 28.65589905 0.807660 0.533772 0.250546
88.42340088 21.21099854 28.64999962 0.890208 -0.455114 0.020020
88.70089722 21.24449921 28.65940094 -0.177416 -0.790030 -0.586836
88.41580200 21.26210022 28.65839958 0.552808 -0.693098 -0.462622
88.45639801 21.26540375 28.65870094 0.565886 -0.780261 -0.266392
88.39969635 21.29940033 28.65139961 0.585192 -0.809727 -0.043504
88.47940063 21.29070282 28.65850067 0.528203 -0.846533 0.066201
88.63659668 21.31379700 28.65229988 -0.383697 -0.913897 -0.132550
88.67189789 21.31610107 28.65550041 -0.328629 -0.930421 -0.162234
88.74169922 21.31030273 28.65660095 -0.693991 -0.714446 -0.089123
88.48840332 21.32479858 28.65119934 0.728314 -0.682163 -0.064899
88.54660034 21.33589935 28.65399933 -0.025952 -0.960215 -0.278054
88.61789703 21.33380127 28.65399933 -0.328110 -0.898220 -0.292478
88.47750092 21.35130310 28.65010071 0.119111 -0.943523 0.309154
88.52860260 21.35169983 28.65929985 0.408451 -0.849515 -0.333904
88.59320068 20.94470215 28.66290092 -0.231763 0.971948 0.040043
88.63200378 20.94699860 28.66609955 -0.292097 0.946286 -0.138645
88.46299744 20.95539856 28.66090012 0.534748 0.720172 0.442037
88.54550171 20.95809937 28.66239929 -0.234361 0.918753 0.317753
88.58450317 20.96769714 28.66860008 -0.220411 0.963807 0.149984
88.50469971 20.97185135 28.66099930 0.230489 0.729099 0.644429
88.52339935 20.97969818 28.66810036 -0.393756 0.871128 0.293416
88.62670135 20.98500061 28.66169930 -0.584524 0.791005 0.180671
88.70520020 20.99590302 28.66500092 -0.661954 0.739306 -0.123466
88.68310547 21.01384735 28.66469955 -0.272546 0.930610 -0.244303
88.36440277 21.05979919 28.66419983 0.869829 0.471944 -0.143761
88.39565277 21.07500076 28.66625023 0.726333 0.682665 0.080057
88.37380219 21.09539795 28.66690063 0.761803 0.609752 0.218766
88.73639679 21.09770203 28.66519928 -0.636641 0.449492 0.626615
88.36979675 21.11660004 28.66370010 0.992182 0.069487 0.103661
88.39189911 21.19719696 28.66900063 0.903637 -0.371059 0.213904
88.35070038 21.20700073 28.66519928 0.914203 0.297952 0.274697
88.38670349 21.22579956 28.66259956 0.874207 -0.484155 0.036823
88.69300079 21.22530365 28.66160011 -0.479199 0.288768 0.828843
88.35410309 21.23480225 28.66690063 0.896775 0.122865 0.425086
88.41359711 21.23580170 28.66069984 0.861649 -0.460046 0.214288
88.43019867 21.24880219 28.66370010 0.806184 -0.477325 0.349612
88.38230133 21.28109741 28.66600037 0.518331 -0.851645 -0.077679
88.41799927 21.28839874 28.66119957 0.836039 -0.099289 0.539612
88.44435120 21.28655243 28.66654968 0.427641 -0.868882 -0.249331
88.66559601 21.29799652 28.66469955 -0.643503 -0.676251 -0.358593
88.74780273 21.29000092 28.66729927 -0.819931 -0.524571 -0.229212
88.46549988 21.30690002 28.66930008 0.831527 -0.472707 0.291737
88.69680023 21.31790161 28.66370010 -0.401483 -0.897178 -0.184074
88.71829987 21.31020355 28.66290092 -0.407791 -0.845268 -0.345294
88.49420166 21.34559631 28.66430092 0.480822 -0.859562 -0.173096
88.59310150 21.35970306 28.66160011 -0.225950 -0.946250 -0.231427
88.54609680 21.38310242 28.66200066 0.738314 -0.551689 -0.387983
88.52169800 20.93959808 28.67749977 0.355725 0.930253 0.089938
88.49259949 20.94239807 28.67219925 0.662857 0.735004 0.142792
88.51789856 20.95850372 28.67020035 0.503496 0.809697 0.301466
88.43569946 20.96659851 28.67259979 0.502474 0.569695 0.650360
88.47859955 20.98680115 28.67370033 0.312063 0.638678 0.703354
88.56169891 20.98290253 28.67230034 0.656658 0.747738 0.098425
88.42659760 20.99759674 28.67429924 0.801188 0.359815 0.478154
88.64019775 20.99379730 28.67569923 -0.672921 0.592772 0.442492
88.67289734 20.99449921 28.67490005 -0.225459 0.972062 -0.065297
88.45020294 21.01270294 28.67819977 0.642686 0.764697 0.046818
88.53679657 21.01450348 28.67580032 0.214000 0.975695 -0.047153
88.41110229 21.02559662 28.67189980 0.761066 0.575985 0.298363
88.43424988 21.02380371 28.67255020 0.801939 0.517227 0.298948
88.72049713 21.02960205 28.67480087 -0.703931 0.608761 -0.365913
88.69280243 21.04509735 28.67350006 -0.554923 0.668926 -0.494569
88.75920105 21.08979797 28.67140007 -0.876318 0.302231 0.375131
88.76589966 21.11660004 28.67320061 -0.977529 -0.054240 0.203702
88.36949921 21.14859772 28.67630005 0.850180 -0.411879 0.327949
88.39279938 21.14929962 28.67849922 0.991041 -0.044273 0.126009
88.74340057 21.14620209 28.67569923 -0.816980 -0.567388 0.103029
88.37270355 21.16960144 28.67510033 0.942146 0.200016 0.268988
88.39659882 21.17310333 28.67919922 0.997090 -0.054975 -0.052819
88.41539764 21.19560242 28.67309952 0.860994 -0.406708 0.305415
88.73719788 21.23590088 28.67679977 0.169021 -0.938545 -0.300939
88.77069855 21.24299622 28.67390060 -0.760658 -0.645625 -0.067582
88.45069885 21.25009918 28.67679977 0.757597 -0.652721 0.001380
88.70320129 21.25579834 28.67830086 -0.808560 -0.577543 -0.112584
88.39890289 21.26809692 28.67630005 0.984521 -0.104583 0.140646
88.59770203 21.29709625 28.67219925 -0.383119 -0.580433 -0.718553
88.68959808 21.29209900 28.67589951 -0.891083 -0.336964 -0.304017
88.65059662 21.30290222 28.67950058 -0.631399 -0.765107 -0.126280
88.49800110 21.31349945 28.67639923 0.471484 -0.876819 0.094297
88.58280182 21.31800079 28.67790031 -0.320890 -0.790252 -0.522045
88.62599945 21.31919861 28.67720032 -0.407117 -0.825323 -0.391276
88.52300262 21.32209778 28.67160034 0.375552 -0.887260 -0.267824
88.61530304 21.33609772 28.67589951 -0.214898 -0.923633 -0.317365
88.64520264 21.33380127 28.67620087 -0.498879 -0.857493 -0.125804
88.69020081 21.33760071 28.67939949 -0.326063 -0.921235 -0.212155
88.43900299 21.34110260 28.67180061 0.678020 -0.720301 0.146476
88.55169678 21.34660339 28.67840004 -0.029076 -0.829348 -0.557975
88.56340027 21.38950348 28.67210007 -0.339720 -0.854730 -0.392462
88.54669952 20.94499969 28.68160057 -0.336653 0.904112 0.263148
88.58080292 20.94539642 28.68580055 -0.076482 0.883019 0.463064
88.64189911 20.94640350 28.68519974 -0.194784 0.888976 0.414465
88.60240173 20.95809937 28.68779945 -0.055434 0.992161 0.112000
88.44860077 20.96320343 28.68869972 0.359074 0.861470 0.359074
88.65059662 20.96620178 28.68300056 -0.383484 0.918451 0.096895
88.61640167 20.97160339 28.68070030 -0.428327 0.894822 -0.125812
88.68599701 20.97579956 28.68910027 -0.420145 0.871914 0.251485
88.45880127 20.98629761 28.68959999 0.578465 0.725950 0.371988
88.74220276 21.01979828 28.68600082 -0.744939 0.651633 0.142968
88.73919678 21.03929901 28.68980026 -0.799887 0.599568 0.026431
88.71710205 21.05719757 28.68449974 -0.814654 0.579946 -0.001365
88.75810242 21.05239868 28.68079948 -0.908482 0.296976 0.294050
88.38420105 21.06790161 28.68129921 0.902155 0.337020 0.269322
88.42240143 21.06379700 28.68149948 0.824870 0.483652 0.292696
88.72969818 21.07469940 28.68939972 -0.723223 0.674907 0.146456
88.75219727 21.07479858 28.68350029 -0.849703 0.360149 0.385095
88.39780426 21.08380127 28.68519974 0.817059 0.536052 0.212283
88.37760162 21.10060120 28.68989944 0.918138 0.373645 0.131956
88.34400177 21.11229706 28.68250084 0.860782 0.260520 0.437247
88.37819672 21.21119690 28.68370056 0.844105 0.001351 0.536176
88.70960236 21.21600342 28.68479919 -0.945225 -0.301667 0.124689
88.40959930 21.22530365 28.68580055 0.660542 -0.241200 0.710990
88.34010315 21.23680115 28.68379974 0.834845 0.539683 0.108515
88.40039825 21.24900055 28.68449974 0.713977 0.001381 0.700167
88.74340057 21.26950073 28.68600082 -0.514923 -0.741950 -0.429377
88.42279816 21.27519989 28.68530083 0.542996 0.600510 -0.586977
88.44329834 21.27439880 28.68779945 0.665973 -0.724150 0.179124
88.70819855 21.28520203 28.68810081 -0.527335 -0.493853 -0.691395
88.41380310 21.29319763 28.68510056 0.701707 -0.325735 -0.633643
88.67679596 21.31020355 28.68759918 -0.438400 -0.685104 -0.581755
88.41169739 21.32209778 28.68320084 0.867464 -0.453819 -0.203847
88.56199646 21.32479858 28.68670082 -0.380708 -0.906517 -0.182453
88.44730377 21.33360291 28.68989944 0.235697 -0.585341 -0.775772
88.47029877 21.34899902 28.68110085 -0.465630 -0.699279 -0.542400
88.58940125 21.34690094 28.68070030 -0.048615 -0.963566 -0.263017
88.61750031 21.36609650 28.68659973 -0.179027 -0.923328 -0.339728
88.46659851 20.94989777 28.69799995 0.204688 0.943764 0.259638
88.47949982 20.97229767 28.69090080 0.329327 0.936480 0.120618
88.50509644 20.97319794 28.69499969 0.296269 0.938416 0.177762
88.62249756 20.98049927 28.69770050 -0.190022 0.963215 -0.190022
88.64119720 20.99590302 28.69659996 -0.476292 0.879205 -0.012007
88.68140411 20.99420166 28.69589996 -0.475173 0.871390 0.122023
88.38490295 21.02590179 28.69969940 0.621195 0.450408 0.641287
88.42810059 21.02785110 28.69145012 0.773964 0.525132 0.353858
88.70379639 21.02980042 28.69070053 -0.504231 0.773370 -0.384253
88.40029907 21.04630280 28.69059944 0.714151 0.633910 0.296894
88.37689972 21.08129883 28.69610023 0.884174 0.463401 0.059128
88.75779724 21.10690308 28.69120026 -0.991706 0.114733 0.057935
88.33979797 21.15609741 28.69709969 0.759867 -0.448043 0.471019
88.36840057 21.16719818 28.69809914 0.655806 0.192884 0.729873
88.38189697 21.18869781 28.69099998 0.999276 0.033822 -0.017423
88.40720367 21.20490265 28.69199944 0.965107 -0.251054 0.074433
88.78440094 21.20099640 28.69039917 -0.529902 -0.386421 -0.754906
88.73329926 21.21230316 28.69499969 -0.151242 -0.301122 -0.941516
88.36434937 21.23395157 28.69495010 -0.381343 -0.873595 0.302340
88.75749969 21.23020172 28.69790077 -0.671239 -0.438054 -0.597952
88.65859985 21.29049683 28.69969940 -0.365552 -0.890752 -0.270061
88.43440247 21.30169678 28.69809914 0.804548 -0.560283 -0.196939
88.47119904 21.30729675 28.69029999 0.664444 -0.747327 -0.004144
88.58879852 21.31240082 28.69799995 0.293788 -0.682294 0.669451
88.65699768 21.31909943 28.69540024 -0.469987 -0.881054 -0.053439
88.63069916 21.33779907 28.69099998 -0.527208 -0.839736 0.129977
88.56559753 21.35310364 28.69350052 -0.476381 -0.778794 -0.408094
88.61250305 20.92919922 28.70910072 -0.379129 0.785685 0.488835
88.51969910 20.93160248 28.70050049 0.222031 0.949423 0.222031
88.53459930 20.94360352 28.70750046 -0.079259 0.967459 0.240292
88.49870300 20.95149994 28.70820045 0.397567 0.917159 0.027554
88.40830231 20.96499634 28.70549965 0.643128 0.646451 0.410472
88.53450012 20.96600342 28.70330048 -0.356155 0.933773 0.034968
88.57330322 20.96099854 28.70059967 -0.348959 0.929190 -0.121794
88.43039703 20.97309875 28.70450020 0.519186 0.696143 0.495814
88.47940063 20.98549652 28.70669937 0.393830 0.817955 0.419341
88.59819794 20.98519897 28.70050049 -0.365450 0.926436 0.090351
88.41799927 20.99259949 28.70630074 0.656231 0.301511 0.691702
88.53649902 20.99449921 28.70400047 -0.076467 0.774768 0.627605
88.70459747 20.99500275 28.70610046 -0.812088 0.541904 0.216455
88.40469360 21.00785065 28.70700073 0.836196 0.311034 0.451702
88.44879913 21.00379944 28.70429993 0.594486 0.493440 0.634904
88.65900421 21.01450348 28.70560074 -0.267236 0.960258 0.080554
88.72540283 21.01999664 28.70190048 -0.783452 0.620291 -0.037977
88.69049835 21.02279663 28.70969963 -0.697349 0.496673 0.516740
88.66079712 21.03579712 28.70229912 -0.633125 0.528449 -0.565592
88.75450134 21.04689789 28.70680046 -0.840334 0.532930 0.099116
88.40019989 21.05950165 28.70940018 0.834952 0.429269 0.344359
88.69069672 21.05960083 28.70730019 -0.556351 0.773153 0.304479
88.36329651 21.09880066 28.70479965 0.896644 0.430891 0.101796
88.38680267 21.09729767 28.70800018 0.952859 0.302673 0.021175
88.36769867 21.13480377 28.70549965 0.961575 0.046146 0.270638
88.74220276 21.13880157 28.70779991 -0.809413 -0.586511 -0.029256
88.40629578 21.14530182 28.70009995 0.646567 0.743932 -0.168868
88.76650238 21.14350128 28.70089912 -0.608282 0.303339 -0.733470
88.38480377 21.15630341 28.70330048 0.608512 -0.773223 -0.178436
88.70989990 21.15959930 28.70540047 -0.872048 -0.415621 -0.258441
88.73049927 21.17389679 28.70639992 -0.400616 0.145807 -0.904570
88.77739716 21.17659760 28.70359993 -0.387855 0.429354 0.815613
88.71720123 21.18920135 28.70910072 -0.550651 -0.343955 -0.760577
88.77649689 21.19860077 28.70940018 -0.545969 -0.689557 -0.475845
88.36859894 21.20775223 28.70619965 0.792381 -0.122472 0.597606
88.42559814 21.21690369 28.70800018 0.969097 -0.158299 0.189186
88.39820099 21.23789978 28.70610046 0.828805 -0.483599 0.281451
88.42060089 21.25630188 28.70549965 0.815076 -0.543892 0.199579
88.69180298 21.25129700 28.70929909 -0.851398 -0.199711 -0.485012
88.71489716 21.25409698 28.70439911 -0.810916 -0.338014 -0.477663
88.35140228 21.26139832 28.70059967 0.631126 -0.763048 0.139417
88.44969940 21.26660156 28.70560074 0.530974 -0.818649 0.218816
88.40309906 21.27829742 28.70520020 0.400771 -0.815912 -0.416738
88.67759705 21.27549744 28.70700073 -0.699659 -0.671230 -0.244802
88.45369720 21.29759979 28.70829964 0.725785 -0.674905 -0.133185
88.64170074 21.30580139 28.70140076 -0.709807 -0.704229 0.015340
88.69290161 21.30539703 28.70779991 -0.713331 -0.554445 -0.428660
88.45349884 21.31809998 28.70739937 0.189942 -0.952402 -0.238437
88.51300049 21.31050110 28.70759964 0.352367 -0.934878 -0.042908
88.67679596 21.31770325 28.70849991 -0.555599 -0.747860 -0.363339
88.57209778 21.32199860 28.70779991 -0.100562 -0.937241 -0.333867
88.51284790 21.33584976 28.70579910 0.319705 -0.918973 -0.230818
88.54370117 21.33119965 28.70249939 -0.104581 -0.988231 -0.111631
88.58930206 21.33769989 28.70280075 -0.027168 -0.930172 -0.366118
88.64710236 21.34010315 28.70409966 -0.591296 -0.806312 -0.015161
88.59970093 20.91400146 28.71220016 0.198918 0.818447 0.539051
88.55799866 20.92549896 28.71980095 0.011660 0.918546 0.395143
88.48809814 20.93659973 28.71730042 0.293199 0.927756 0.230877
88.66739655 20.93229675 28.71949959 0.373625 0.909012 0.184665
88.59529877 20.94319916 28.71590042 -0.069105 0.410566 0.909208
88.51339722 20.96569824 28.71310043 -0.015898 0.997349 0.071012
88.55830383 20.96589661 28.71640015 0.058641 0.773771 0.630745
88.60880280 20.98149872 28.71859932 -0.432071 0.868658 0.242381
88.67050171 20.98519897 28.71190071 -0.209036 0.968233 0.137220
88.63909912 21.02339935 28.71929932 -0.932092 0.361841 0.016622
88.38839722 21.03910065 28.71660042 0.814220 0.454115 0.361698
88.41970062 21.03639984 28.71279907 0.784774 0.536448 0.310408
88.36160278 21.04570007 28.71829987 0.975473 0.057095 0.212587
88.75900269 21.06770325 28.71459961 -0.929058 0.357330 0.095738
88.34840393 21.09429932 28.71879959 0.937612 0.347682 0.001255
88.32900238 21.14710236 28.71610069 0.791495 0.432166 0.432166
88.40339661 21.16609955 28.71940041 0.938927 -0.091895 0.331621
88.36389923 21.18710327 28.71689987 0.898320 0.003934 0.439324
88.75509644 21.18730164 28.71139908 -0.463349 -0.188004 -0.866004
88.39050293 21.20880127 28.71479988 0.793149 -0.037903 0.607847
88.70130157 21.21600342 28.71369934 -0.673468 -0.502162 -0.542470
88.35499573 21.23629761 28.71489906 -0.034967 -0.973059 0.227891
88.37470245 21.23909760 28.71940041 -0.025263 -0.900174 0.434796
88.37629700 21.27200317 28.71109962 0.269592 -0.918341 -0.289775
88.43029785 21.27100372 28.71839905 0.719567 -0.667179 -0.192604
88.42880249 21.29370117 28.71719933 0.813893 -0.229244 -0.533877
88.67289734 21.29399872 28.71879959 -0.767687 -0.627565 -0.129687
88.57830048 21.30110168 28.71209908 -0.099353 -0.985147 0.140051
88.48829651 21.31020355 28.71039963 0.324725 -0.942623 0.077566
88.47370148 21.32319641 28.71739960 0.187113 -0.964353 0.187113
88.55339813 21.33640289 28.71949959 -0.272313 -0.952431 -0.136821
88.53050232 21.35420227 28.71629906 0.396499 -0.914265 0.083115
88.58209991 20.91000366 28.72220039 0.094763 0.910547 0.402398
88.51599884 20.92250061 28.72260094 0.162932 0.957722 0.237112
88.44300079 20.94960022 28.72789955 0.350003 0.935511 0.048142
88.47419739 20.95279694 28.72900009 0.154796 0.975341 0.157313
88.58589935 20.95989990 28.72270012 -0.631213 -0.113825 -0.767212
88.63670349 20.95079803 28.72209930 -0.086461 0.993741 0.070741
88.42510223 20.96649933 28.72559929 0.401136 0.754790 0.519020
88.66049957 20.95999908 28.72509956 -0.519315 0.845160 -0.126556
88.70890045 20.96600342 28.72940063 -0.504619 0.863341 0.001339
88.38890076 20.97309875 28.72730064 0.650307 0.689228 0.319477
88.64949799 20.97910309 28.72089958 -0.566618 0.822510 0.049210
88.39839935 20.98979950 28.72019958 0.947803 0.310734 -0.071508
88.58740234 20.98349762 28.72739983 -0.329467 0.919940 0.212513
88.68930054 20.98549652 28.72410011 -0.592186 0.655934 0.468045
88.37779999 21.00160217 28.72290039 0.874496 0.452628 0.174313
88.72399902 21.00170135 28.72610092 -0.598247 0.789209 0.138746
88.42440033 21.01229858 28.72509956 0.715251 0.694940 -0.073991
88.67739868 21.01349640 28.72769928 -0.151894 0.984318 -0.089701
88.40799713 21.02680206 28.72780037 0.976764 0.189411 0.100276
88.72370148 21.02639771 28.72579956 -0.600607 0.791509 0.113073
88.71689606 21.05760193 28.72450066 -0.545923 0.812004 0.206442
88.74099731 21.05509949 28.72270012 -0.740025 0.667044 0.086117
88.36589813 21.06880188 28.72909927 0.910805 0.361156 0.200003
88.38269806 21.07949829 28.72610092 0.969230 0.243224 0.037889
88.38130188 21.10230255 28.72890091 0.975811 0.166602 -0.141549
88.36650085 21.12370300 28.72559929 0.964717 0.233129 0.122361
88.38890076 21.13680267 28.72960091 0.813695 0.023565 0.580815
88.35859680 21.14710236 28.72130013 0.939945 -0.032058 0.339816
88.76509857 21.14759827 28.72089958 -0.550512 -0.815964 -0.176465
88.69789886 21.16919708 28.72900009 -0.889315 -0.392127 -0.235276
88.34580231 21.18399811 28.72680092 0.619081 -0.315198 0.719298
88.38600159 21.18229675 28.72310066 0.859562 0.173096 0.480822
88.33509827 21.20449829 28.72850037 0.591274 0.073014 0.803159
88.74369812 21.20529938 28.72909927 -0.996087 -0.077461 -0.042549
88.36640167 21.21499634 28.72859955 0.735674 -0.009735 0.677265
88.32510376 21.23130035 28.72719955 0.938774 -0.337433 0.069587
88.72380066 21.23280334 28.72170067 -0.095932 -0.990528 -0.098244
88.67620087 21.24990082 28.72520065 -0.757426 -0.461685 -0.461685
88.74069977 21.24720001 28.72870064 -0.940791 -0.239701 -0.239701
88.65439606 21.28579712 28.72170067 -0.687660 -0.696974 -0.203349
88.70300293 21.28600311 28.72599983 -0.739819 -0.637023 -0.216494
88.46569824 21.29730225 28.72940063 0.661924 -0.747702 -0.052897
88.53379822 21.30390167 28.72879982 0.001016 -0.999131 0.041673
88.64179993 21.30750275 28.72940063 -0.625141 -0.762033 -0.168834
88.41020203 21.32109833 28.72879982 0.846062 0.370641 -0.383152
88.50060272 21.32070160 28.72940063 0.412797 -0.909756 0.044085
88.58090210 21.32679749 28.72680092 -0.195606 -0.970361 -0.141910
88.52159882 21.33049774 28.72640038 0.233838 -0.955395 0.180389
88.64929962 21.33480072 28.72419930 -0.466523 -0.877744 -0.109186
88.59510040 21.34179688 28.72879982 0.916128 -0.220043 -0.335099
88.56439972 20.93219757 28.73979950 0.246402 0.948853 0.197394
88.53140259 20.95610046 28.73439980 0.436447 0.896301 -0.078478
