73.33069611 17.49849701 29.36540031 0.659784 -0.609674 -0.439299
73.36750031 17.50769806 29.36750031 0.244607 -0.325661 -0.913298
73.31790161 17.52590179 29.36400032 -0.685875 -0.727612 -0.012521
73.73909760 17.52739716 29.36070061 0.689209 -0.698460 -0.192732
73.35489655 17.54599762 29.36899948 -0.939188 0.143127 -0.312154
73.66609955 17.55449677 29.36490059 0.057256 0.387480 -0.920098
73.32455444 17.57874680 29.36700058 -0.970319 0.241687 0.008334
73.67745209 17.61214828 29.36439896 0.431408 -0.722320 0.540500
73.71640015 17.61139679 29.36170006 0.955175 -0.221043 0.196929
73.31469727 17.62590027 29.36989975 -0.782539 0.348688 -0.515801
73.33399963 17.64399719 29.36389923 -0.828408 0.403908 -0.388069
73.69419861 17.66490173 29.36499977 0.775263 0.411198 0.479461
73.37059784 17.67209625 29.36079979 -0.850457 0.525959 -0.009465
73.67759705 17.69460297 29.36149979 0.784286 0.592402 -0.184269
73.67859650 17.71910095 29.36829948 -0.142304 0.612658 0.777431
73.65080261 17.72370148 29.36109924 0.020774 0.585819 0.810175
73.62139893 17.75489807 29.36759949 -0.071450 0.947035 -0.313080
73.37570190 17.76730347 29.36560059 -0.656035 0.747437 -0.104671
73.43309784 17.77130127 29.36520004 -0.640922 0.767143 -0.026647
73.65930176 17.77549744 29.36960030 0.672332 0.541554 -0.504668
73.56489563 17.78769684 29.36490059 0.496162 0.866555 -0.053901
73.41920471 17.79679871 29.36479950 -0.945541 0.322023 0.047470
73.47959900 17.80439758 29.36109924 -0.236252 0.961978 -0.137052
73.41719818 17.83219910 29.36210060 -0.817367 0.555333 -0.153349
73.49520111 17.83580017 29.36689949 -0.538384 0.717294 0.442303
73.51869965 17.83059692 29.36709976 0.540711 0.829483 -0.139966
73.51180267 17.85929871 29.36919975 0.026876 0.078477 -0.996554
73.39419556 17.36350250 29.37120056 -0.454869 -0.826319 -0.332101
73.42759705 17.37059784 29.37929916 0.050350 -0.888618 -0.455876
73.46080017 17.37999725 29.37940025 0.216526 -0.671386 0.708772
73.42510223 17.39510345 29.37400055 -0.381527 -0.796860 -0.468457
73.58110046 17.39019775 29.37409973 0.019065 -0.990257 0.137941
73.61440277 17.39939880 29.37019920 0.353137 -0.484165 -0.800549
73.48590088 17.40190125 29.37639999 -0.466469 -0.870059 0.159389
73.59140015 17.41690063 29.37590027 0.511041 0.688649 -0.514392
73.46559906 17.42449951 29.37599945 0.832549 -0.423357 -0.357256
73.56690216 17.42739868 29.37859917 0.955656 -0.100116 0.276945
73.61470032 17.43049622 29.37389946 -0.134104 -0.990567 -0.028173
73.39559937 17.44869995 29.37929916 -0.975744 0.139034 -0.169096
73.30349731 17.46109772 29.37759972 -0.691955 -0.244312 -0.679345
73.65339661 17.46839905 29.37870026 0.804280 -0.587687 -0.088081
73.34590149 17.48940277 29.37859917 0.459135 -0.886935 -0.050410
73.65539551 17.49320221 29.37450027 0.949247 -0.208371 0.235609
73.68510437 17.50620270 29.37305069 0.833585 -0.517034 -0.194453
73.66549683 17.51270294 29.37039948 0.959291 -0.282288 0.008554
73.29260254 17.52660370 29.37980080 -0.867652 0.495997 -0.034160
73.63349915 17.54810333 29.37680054 0.000000 0.000000 0.000000
73.74610138 17.54630280 29.37649918 0.769374 -0.632142 -0.091975
73.68129730 17.55490112 29.37899971 0.968046 -0.204408 -0.145271
73.70569611 17.56680298 29.37509918 0.891485 -0.172499 0.418926
73.67720032 17.58550262 29.37669945 0.577946 0.141144 -0.803776
73.30069733 17.59570313 29.37520027 -0.845746 0.145615 -0.513331
73.33229828 17.60749817 29.37129974 -0.956789 0.285136 -0.057027
73.69799805 17.61060333 29.37949944 0.968072 0.137561 0.209556
73.32559967 17.65910339 29.37870026 -0.848511 0.529135 0.006766
73.34899902 17.66690063 29.37870026 -0.361103 0.922819 -0.134203
73.66970062 17.67910004 29.37269974 0.897564 0.377535 0.227696
73.35720062 17.68379974 29.37159920 -0.349356 0.926553 -0.139466
73.36859894 17.69950104 29.37949944 -0.867150 0.443343 -0.226932
73.63449860 17.70059967 29.37639999 0.863600 -0.501579 -0.051125
73.65599823 17.70240021 29.37829971 0.602482 0.792125 0.097739
73.37409973 17.72429657 29.37330055 -0.804006 0.422063 0.418853
73.39929962 17.74980164 29.37220001 -0.814766 0.422530 0.397019
73.58219910 17.76439667 29.37420082 0.862523 0.488521 -0.131915
73.59059906 17.78279877 29.37310028 0.963340 -0.035862 -0.265877
73.46980286 17.79010010 29.37820053 -0.143066 0.959464 -0.242819
73.44480133 17.80139923 29.37599945 -0.456162 0.885819 -0.085094
73.47000122 17.81390381 29.37800026 -0.347319 0.624522 0.699530
73.52459717 17.81199646 29.37739944 0.166670 0.956021 -0.241339
73.43710327 17.82920074 29.37120056 -0.344160 0.614921 0.709525
73.55120087 17.82920074 29.37369919 0.535873 0.673620 -0.508995
73.53669739 17.36679840 29.38899994 0.154599 -0.882805 0.443570
73.48059845 17.37490082 29.38859940 0.767655 -0.640861 0.001378
73.38220215 17.38220215 29.38890076 -0.951526 0.286382 0.112177
73.40529633 17.39810181 29.38789940 -0.777692 0.596691 -0.197874
73.50309753 17.40470123 29.38839912 0.814638 -0.568931 0.112616
73.53199768 17.40409851 29.38360023 -0.207273 -0.305974 -0.929203
73.61879730 17.40730286 29.38920021 -0.175080 -0.519255 -0.836494
73.64500427 17.42400360 29.38710022 0.251577 -0.452839 -0.855363
73.34660339 17.44370270 29.38299942 -0.833439 0.526304 0.168477
73.49469757 17.44200134 29.38400078 0.223029 -0.308263 -0.924788
73.47619629 17.45629883 29.38769913 0.392374 -0.727287 -0.563114
73.35800171 17.46859741 29.38089943 0.086631 0.413904 -0.906189
73.32220459 17.47080231 29.38859940 -0.848125 0.265326 -0.458570
73.39350128 17.48179626 29.38190079 -0.693953 -0.351058 0.628640
73.31349945 17.49009705 29.38330078 -0.380527 -0.503590 0.775626
73.37120056 17.49250031 29.38069916 -0.149409 -0.722900 -0.674606
73.71489716 17.50409698 29.38879967 0.815997 -0.556430 -0.156636
73.65889740 17.51000214 29.38929939 0.903778 -0.427409 0.022495
73.33409882 17.52100372 29.38220024 -0.661919 0.073868 -0.745926
73.30570221 17.54329681 29.38470078 -0.977562 0.117704 -0.174697
73.30899811 17.56790161 29.38150024 -0.967273 -0.238350 -0.087017
73.35659790 17.60659790 29.38540077 -0.826546 0.562491 -0.020629
73.28929901 17.61360168 29.38990021 -0.422278 0.448164 0.787928
73.31950378 17.63510132 29.38789940 -0.989954 -0.094005 -0.105611
73.70079803 17.63030243 29.38439941 0.873061 0.472968 0.118599
73.30590057 17.64890289 29.38269997 -0.881334 0.459765 0.108929
73.67200470 17.64389801 29.38599968 0.974663 0.219148 0.044798
73.70179749 17.67720032 29.38489914 0.484020 0.829527 0.278584
73.32659912 17.68350220 29.38339996 -0.854663 0.406467 -0.323010
73.33340454 17.72109985 29.38809967 -0.311733 0.011178 0.950104
73.41059875 17.73220062 29.38349915 -0.807163 0.193050 0.557870
73.41010284 17.76640320 29.38610077 -0.689888 0.586820 0.423907
73.62509918 17.76589966 29.38949966 -0.552567 0.806657 -0.209700
73.68289948 17.76329803 29.38789940 0.838947 0.406144 0.362237
73.57040405 17.77729797 29.38929939 0.663630 0.735535 0.136321
73.49760437 17.79840088 29.38430023 -0.060016 0.996258 -0.062198
73.54270172 17.80220032 29.38059998 0.746315 0.543814 -0.383772
73.60880280 17.80999756 29.38489914 0.266301 0.814477 -0.515472
73.48750305 17.82170105 29.38899994 -0.408390 0.795796 0.447131
73.44359589 17.34919739 29.39959908 -0.454898 -0.191146 0.869788
73.40119934 17.37670135 29.39809990 0.098594 -0.722532 0.684271
73.50479889 17.38339996 29.39970016 -0.093969 -0.882186 -0.461430
73.64900208 17.38980103 29.39249992 -0.328611 0.869674 -0.368350
73.41590118 17.41690063 29.39879990 -0.766300 -0.642481 0.001376
73.55020142 17.41459656 29.39459991 -0.213985 -0.972318 0.093853
73.52729797 17.42259979 29.39539909 -0.433833 -0.798318 0.417706
73.37020111 17.43270111 29.39229965 -0.655378 -0.726648 0.206064
73.61830139 17.43789673 29.39879990 0.179226 0.742947 -0.644909
73.58599854 17.45520020 29.39139938 0.502793 0.420905 -0.755009
73.65720367 17.45320129 29.39690018 0.973694 -0.221128 0.054976
73.37509918 17.46790314 29.39800072 -0.556739 -0.026248 -0.830273
73.68769836 17.47979736 29.39879990 0.622250 -0.771471 -0.132806
73.33509827 17.49340057 29.39749908 -0.858664 -0.445289 -0.253800
73.38860321 17.50620270 29.39570045 -0.678906 -0.366577 0.636167
73.72630310 17.51969910 29.39469910 0.615189 -0.655201 0.438468
73.30549622 17.52680206 29.39690018 -0.847566 -0.524953 -0.077823
73.69770050 17.53479767 29.39629936 -0.535992 -0.250129 -0.806318
73.31970215 17.54170227 29.39889908 -0.822102 -0.289693 0.490129
73.35299683 17.54160309 29.39509964 -0.218004 0.951904 0.215296
73.32389832 17.57050323 29.39959908 -0.970583 0.162403 0.177748
73.69640350 17.57769775 29.39189911 0.943956 -0.289299 -0.158911
73.71459961 17.58820343 29.39690018 0.973544 0.062611 0.219753
73.33079529 17.59140015 29.39039993 -0.712521 0.698068 0.070818
73.68190002 17.61720276 29.39439964 0.984642 0.019532 -0.173490
73.71320343 17.61100006 29.39259911 0.882620 0.265236 0.388113
73.37000275 17.67690277 29.39279938 -0.594143 0.803010 -0.046572
73.34460449 17.68679810 29.39349937 -0.361324 0.266161 0.893646
73.68280029 17.68659973 29.39870071 0.899859 0.424199 -0.101530
73.39289856 17.69550323 29.39049911 -0.799211 0.138411 0.584897
73.36700439 17.70939636 29.39739990 -0.595955 -0.541931 0.592578
73.38800049 17.71929932 29.39640045 -0.696014 0.247787 0.673918
73.36560059 17.73580170 29.39710045 -0.567435 0.803488 -0.180066
73.38019562 17.75569916 29.38999939 -0.964429 -0.114598 0.238210
73.59819794 17.75229645 29.39340019 0.369626 0.924742 -0.090714
73.45110321 17.79509735 29.39809990 -0.304992 0.903188 0.302045
73.58609772 17.79920197 29.39089966 0.815377 0.307541 -0.490488
73.56240082 17.80670166 29.39669991 0.735931 0.621488 0.268623
73.45840454 17.37999725 29.40139961 0.213502 -0.867443 0.449398
73.42929840 17.38279724 29.40419960 -0.402162 -0.627240 0.666960
73.55439758 17.38189697 29.40600014 0.737825 -0.606585 -0.296090
73.51979828 17.39900208 29.40360069 -0.441974 -0.851609 0.281816
73.45389557 17.40560150 29.40810013 0.398881 -0.913478 -0.080321
73.47519684 17.40010071 29.40229988 -0.267184 -0.953091 -0.142233
73.56639862 17.40029907 29.40789986 0.847167 -0.527904 -0.060212
73.59359741 17.41159821 29.40889931 0.380005 -0.924722 0.022048
73.67009735 17.41999817 29.40229988 0.994433 -0.085746 0.061247
73.32599640 17.42019653 29.40519905 -0.335127 -0.905867 -0.259028
73.50299835 17.43090057 29.40220070 0.128632 -0.320903 -0.938336
73.59919739 17.43060303 29.40480042 0.822102 -0.490129 0.289693
73.30540466 17.44139862 29.40679932 -0.916130 0.082791 0.392239
73.41040039 17.46089935 29.40329933 -0.990799 -0.124277 0.053588
73.34569550 17.47299957 29.40670013 -0.527307 -0.841077 -0.120569
73.34149933 17.52610016 29.40419960 -0.963239 -0.220878 0.152916
73.67749786 17.52559662 29.40430069 0.904043 -0.368314 0.216912
73.27960205 17.58609772 29.40110016 -0.804198 -0.535611 -0.257656
73.31809998 17.60009766 29.40620041 0.098620 0.713888 0.693281
73.33630371 17.61060333 29.40719986 -0.960642 0.257292 -0.104727
73.69535065 17.62424850 29.40790176 0.897861 0.437419 0.050107
73.30319977 17.64759827 29.40970039 -0.908977 0.387130 0.154569
73.37670135 17.65879822 29.40299988 -0.574634 0.467414 0.671803
73.35040283 17.66110229 29.40979958 -0.630066 0.692254 0.351855
73.67089844 17.66609955 29.40780067 0.927096 -0.370042 -0.059684
73.33260345 17.67220306 29.40660095 -0.345778 0.840192 0.417749
73.64980316 17.71779633 29.40710068 0.215110 0.828404 -0.517180
73.40859985 17.73729706 29.40740013 -0.821002 0.481926 0.306110
73.66619873 17.73310089 29.40810013 -0.452622 0.766353 0.455890
73.40439606 17.76419830 29.40710068 -0.599021 0.776735 -0.194567
73.42720032 17.76930237 29.40719986 -0.644037 0.650660 0.402316
73.61409760 17.77570343 29.40730095 0.625945 0.185182 -0.757562
73.54750061 17.78910065 29.40870094 0.435303 0.863022 0.256328
73.42320251 17.79049683 29.40690041 -0.212824 0.846769 0.487533
73.62699890 17.79820251 29.40719986 0.743483 0.668719 0.006923
73.48279572 17.80120087 29.40419960 -0.291405 0.944695 0.150446
73.52890015 17.80329895 29.40449905 0.029334 0.942514 0.332877
73.50930023 17.81580353 29.40859985 -0.028871 0.985063 0.169759
73.57720184 17.81860352 29.40559959 0.117821 0.389502 -0.913459
73.54889679 17.83139801 29.40629959 -0.442187 0.896397 -0.030726
73.50970459 17.34049988 29.41519928 -0.287809 -0.180397 0.940544
73.47789764 17.36049652 29.41270065 -0.151868 -0.771371 0.617999
73.50150299 17.37920380 29.41970062 -0.955170 -0.166988 0.244470
73.60839844 17.38089752 29.41239929 -0.610089 -0.373289 -0.698889
73.48560333 17.41169739 29.41830063 -0.186312 -0.981400 -0.046281
73.56529999 17.41870117 29.41769981 0.351890 -0.854147 -0.382893
73.64569855 17.42469788 29.41010094 0.413080 0.497981 -0.762483
73.39329529 17.43000031 29.41250038 -0.895011 -0.438514 -0.081616
73.36840057 17.44850159 29.41710091 -0.789971 -0.610626 -0.055511
73.61859894 17.45610046 29.41160011 0.391199 0.160747 -0.906159
73.59760284 17.46289825 29.41040039 0.639909 0.158843 -0.751855
73.66079712 17.48300171 29.41060066 0.722442 -0.639877 -0.261984
73.70089722 17.48139954 29.41589928 0.213025 -0.929691 -0.300492
73.35320282 17.49099731 29.41659927 -0.775522 -0.545264 -0.318204
73.60990143 17.49569702 29.41920090 0.209693 0.178041 -0.961421
73.31669617 17.50559998 29.41119957 -0.839645 -0.540670 -0.051692
73.68530273 17.50219727 29.41259956 -0.189634 -0.667572 -0.719991
73.65159607 17.52339935 29.41020012 0.387695 0.258963 -0.884664
73.30010223 17.53900146 29.41780090 -0.992950 0.116232 -0.023246
73.67729950 17.54810333 29.41510010 0.742366 -0.669667 -0.020971
73.73660278 17.54080200 29.41150093 0.817082 -0.531946 0.222283
73.31079865 17.57430267 29.41449928 -0.959035 -0.202949 -0.197644
73.68080139 17.59300232 29.41160011 0.920285 0.366165 0.137834
73.35219574 17.63030243 29.41309929 -0.678165 0.431559 -0.594852
73.31489563 17.66470337 29.41950035 -0.263706 0.861237 0.434430
73.35459900 17.68039703 29.41360092 -0.891180 0.452939 -0.025386
73.39640045 17.68859863 29.41259956 -0.861213 0.412952 0.296282
73.37960052 17.70819855 29.41349983 -0.994915 0.009701 -0.100246
73.68019867 17.71469879 29.41640091 0.994571 0.076848 -0.070166
73.36969757 17.72560120 29.41530037 -0.529218 0.835841 -0.145940
73.37929535 17.74600220 29.41510010 -0.471019 0.448043 0.759867
73.61360168 17.75409698 29.41150093 0.574394 0.796839 0.187402
73.65509796 17.77469635 29.41259956 0.333522 0.928001 0.166063
73.37539673 17.78379822 29.41150093 -0.800090 -0.032115 0.599020
73.57810211 17.78009796 29.41200066 0.595998 0.682326 0.423341
73.50129700 17.79640198 29.41040039 -0.078772 0.980403 0.180569
73.39299774 17.80809784 29.41860008 -0.140780 0.369374 -0.918555
73.43810272 17.80249786 29.41489983 -0.915831 0.401085 0.019597
73.60209656 17.80020142 29.41500092 0.757242 -0.267169 0.595992
73.52970123 17.36299896 29.42900085 0.229828 -0.636327 -0.736388
73.56890106 17.37960052 29.42410088 0.755581 -0.393294 -0.523848
73.36730194 17.39820099 29.42860031 0.302934 -0.824044 0.478730
73.42449951 17.39779663 29.42600060 -0.416151 -0.903284 -0.104386
73.44930267 17.39230347 29.42819977 0.179092 -0.944678 0.274790
73.54599762 17.39700317 29.42880058 0.146560 -0.537385 -0.830504
73.40280151 17.40769958 29.42480087 -0.114752 -0.978476 0.171511
73.38209534 17.41230011 29.42760086 -0.037429 -0.547575 -0.835919
73.52939606 17.42669678 29.42040062 -0.032019 -0.811620 -0.583308
73.61289978 17.44450378 29.42970085 0.891520 -0.253660 -0.375299
73.65249634 17.44940186 29.42090034 0.912484 -0.080233 0.401167
73.34889984 17.45880127 29.42690086 -0.307692 -0.776405 -0.550020
73.37509918 17.46600342 29.42799950 -0.600359 -0.797152 -0.064171
73.62969971 17.46099854 29.42770004 0.489875 -0.849417 -0.196250
73.64450073 17.47869873 29.42359924 -0.110711 -0.748407 0.653934
73.31999969 17.48539734 29.42440033 -0.847485 -0.529505 0.037328
73.67179871 17.48789978 29.42869949 0.559666 -0.826038 0.066593
73.71920013 17.48609924 29.42900085 0.929353 -0.354104 -0.104467
73.34449768 17.52709961 29.42720032 -0.992654 -0.078457 -0.092102
73.33110046 17.55180359 29.42980003 -0.732525 -0.279285 0.620811
73.70279694 17.56580353 29.42799950 0.855794 -0.420958 -0.300684
73.28780365 17.58630371 29.42729950 -0.064571 0.627059 0.776291
73.32910156 17.58850098 29.42840004 -0.996210 0.031368 0.081125
73.66100311 17.59960175 29.42560005 -0.018162 0.697143 -0.716702
73.69850159 17.59490204 29.42169952 0.931397 0.338815 0.133057
73.68260193 17.62169647 29.42630005 0.891849 0.247818 -0.378405
73.33519745 17.63849640 29.42000008 -0.915682 -0.051982 0.398528
73.73030090 17.64730072 29.42939949 0.079496 -0.196906 -0.977194
73.33850098 17.65730286 29.42880058 -0.960353 0.230537 0.156765
73.68989563 17.69390106 29.42959976 0.644680 0.584083 -0.493188
73.41889954 17.71910095 29.42060089 -0.953979 0.293236 0.062745
73.34909821 17.72450256 29.42609978 -0.870133 -0.020236 -0.492401
73.63680267 17.72519684 29.42099953 0.580707 0.733611 0.352979
73.39199829 17.73169708 29.42429924 -0.603271 0.640240 0.475559
73.62539673 17.73970032 29.42989922 0.826893 0.518146 0.218569
73.64780426 17.74520111 29.42280006 -0.129841 -0.078373 0.988433
73.68650055 17.74030304 29.42510033 0.754071 0.515254 -0.407296
73.39520264 17.75630188 29.42709923 -0.732927 0.514538 0.445050
73.62709808 17.76650238 29.42449951 0.314908 0.634661 0.705718
73.43449402 17.77659988 29.42665100 -0.491902 0.868795 0.056811
73.45470428 17.77649689 29.42729950 -0.502238 0.757448 0.417169
73.55979919 17.78649902 29.42480087 0.469132 0.866204 -0.172064
73.46410370 17.79706573 29.42643166 -0.138046 0.918913 -0.369517
73.50859833 17.80729675 29.42930031 0.156663 0.976326 -0.149144
73.60160065 17.83809662 29.42760086 0.813021 0.236038 -0.532243
73.35520172 17.37629700 29.43280029 0.000000 0.000000 0.000000
73.47389984 17.38909912 29.43040085 -0.113673 -0.966856 0.228622
73.58129883 17.40670013 29.43989944 0.457835 -0.825992 -0.328823
73.34740448 17.41639709 29.43230057 -0.517450 -0.729059 0.448016
73.60890198 17.42299652 29.43689919 0.431274 -0.899515 -0.069825
73.63690186 17.42549896 29.43910027 0.894099 -0.061427 0.443637
73.38890076 17.43699646 29.43639946 -0.885432 -0.443434 0.139201
73.65869904 17.43219757 29.43219948 0.662331 -0.467824 0.585199
73.32869720 17.44010162 29.43700027 -0.416975 -0.736711 0.532343
73.32869720 17.46260071 29.43470001 -0.606906 -0.492586 -0.623718
73.66290283 17.46099854 29.43689919 0.592689 -0.295546 -0.749248
73.69029999 17.47010040 29.43600082 0.519146 -0.843795 0.136002
73.33090210 17.50550079 29.43429947 -0.968108 0.171907 0.182247
73.70089722 17.50180054 29.43470001 0.020997 -0.698502 0.715300
73.29339600 17.51599884 29.43300056 -0.926145 -0.363114 -0.101998
73.71440125 17.52349854 29.43959999 0.817877 -0.166577 0.550754
73.32399750 17.53309631 29.43000031 -0.474335 -0.878142 0.062231
73.29840088 17.55480194 29.43560028 -0.956466 -0.036353 0.289572
73.67659760 17.55860138 29.43799973 0.878577 -0.432644 -0.202294
73.34009552 17.62879944 29.43910027 -0.988890 0.080559 0.124925
73.70819855 17.62619781 29.43449974 0.491840 -0.515181 0.701913
73.31959534 17.64060211 29.43280029 -0.158869 0.530057 0.832947
73.67500305 17.65709686 29.43899918 0.842507 0.072215 -0.533824
73.70230103 17.66149902 29.43110085 0.270784 0.056676 -0.960970
73.35520172 17.68710327 29.43860054 -0.933747 0.070197 0.350983
73.66860199 17.68280029 29.43260002 0.906746 0.388606 -0.163698
73.36599731 17.71289825 29.43440056 -0.810194 0.555778 0.186269
73.65470123 17.71189880 29.43619919 0.831015 0.479969 0.281147
73.42500305 17.75839996 29.43589973 -0.605363 0.792293 0.076210
73.58940125 17.76180267 29.43849945 0.635944 0.575217 0.514490
73.61229706 17.76560211 29.43939972 0.942677 0.283213 0.176495
73.53790283 17.78919983 29.43370056 0.272098 0.958147 -0.088980
73.48650360 17.79920197 29.43619919 -0.439203 0.829607 -0.344751
73.44750214 17.81939697 29.43379974 -0.243256 0.813436 -0.528346
73.56079865 17.35330200 29.44630051 -0.099846 -0.820473 -0.562899
73.48300171 17.37490082 29.44560051 -0.345873 -0.745331 0.569959
73.46019745 17.38649750 29.44939995 -0.294946 -0.953785 0.057457
73.55159760 17.38069916 29.44400024 0.295688 -0.895978 0.331348
73.63190460 17.38680267 29.44549942 0.919064 -0.222238 0.325472
73.43759918 17.39219666 29.44519997 -0.213460 -0.718286 0.662194
73.52310181 17.39569855 29.44070053 0.790847 -0.478374 -0.381733
73.50070190 17.40280151 29.44750023 -0.458476 -0.809922 0.365823
73.41059875 17.41410065 29.44379997 -0.491655 -0.837804 0.237403
73.48609924 17.41829681 29.44120026 -0.834513 -0.550365 0.026208
73.45220184 17.42880249 29.44190025 0.236737 -0.198859 0.951005
73.57220459 17.42469788 29.44869995 0.336517 -0.629140 -0.700670
73.34660339 17.43630219 29.44610023 -0.887848 -0.454280 0.073182
73.46839905 17.44619751 29.44280052 0.003098 -0.054726 0.998497
73.39730072 17.45539856 29.44120026 0.203728 -0.977654 -0.051836
73.65930176 17.47779846 29.44869995 0.198986 -0.951611 0.234180
73.31629944 17.48570251 29.44739914 -0.917676 -0.323125 0.231214
73.66960144 17.49510193 29.44960022 0.744719 -0.643792 0.175858
73.68810272 17.52940369 29.44729996 0.778821 -0.064543 -0.623917
73.34460449 17.53810120 29.44910049 -0.998961 -0.030083 -0.034232
73.32320404 17.56240082 29.44569969 -0.944193 0.110533 0.310292
73.34970093 17.57460022 29.44770050 -0.995380 -0.018413 0.094231
73.33709717 17.59629822 29.44840050 -0.971046 0.165040 0.172716
73.70560455 17.59870148 29.44869995 0.968224 0.249592 0.015675
73.32399750 17.61509705 29.44409943 -0.998563 0.009313 0.052774
73.68209839 17.61329651 29.44540024 0.940328 0.114020 -0.320597
73.73979950 17.62870026 29.44160080 0.230358 -0.450177 -0.862714
73.35839844 17.64289856 29.44409943 -0.771943 0.629475 0.088679
73.36280060 17.66590118 29.44179916 -0.724220 0.686785 0.061911
73.71549988 17.68910217 29.44490051 0.287200 0.694736 -0.659438
73.38159943 17.69580078 29.44669914 -0.902995 0.414512 -0.113049
73.67029572 17.70059967 29.44639969 0.350801 0.832169 0.429456
73.40730286 17.72989655 29.44949913 -0.886622 0.459070 -0.056185
73.38800049 17.73419952 29.44429970 -0.818289 0.330798 0.470081
73.62629700 17.73789978 29.44980049 0.565470 0.798401 0.206879
73.67579651 17.74210358 29.44400024 0.884956 0.440313 -0.151583
73.66690063 17.76730347 29.44470024 0.858893 0.464795 -0.215099
73.40159607 17.77239990 29.44199944 -0.737027 0.674783 0.038195
73.57420349 17.78990173 29.44090080 0.071151 -0.301421 0.950833
73.44860077 17.79530334 29.44499969 -0.378711 0.920118 -0.099805
73.60939789 17.80169678 29.44000053 0.918458 -0.051838 0.392106
73.46469879 17.82219696 29.44389915 0.197020 0.572731 -0.795715
73.48639679 17.82540131 29.44700050 -0.041168 0.668633 -0.742452
73.55349731 17.82060242 29.44050026 0.891817 0.407229 0.197046
73.53230286 17.84269714 29.44309998 0.456048 -0.039244 0.889090
73.46520233 17.33769989 29.45890045 0.000000 0.000000 0.000000
73.49870300 17.36129761 29.45389938 -0.407667 -0.913018 0.014327
73.52839661 17.36129761 29.45709991 -0.430007 -0.846042 -0.315131
73.40319824 17.37169647 29.45820045 0.331350 -0.034542 0.942876
73.58889771 17.38919830 29.45719910 0.489476 -0.398411 -0.775681
73.47240448 17.40270233 29.45630074 -0.144648 -0.974804 -0.169805
73.61689758 17.40110016 29.45219994 0.186550 -0.562683 -0.805349
73.39019775 17.41439819 29.45660019 0.111700 -0.952732 0.282534
73.44540405 17.41519928 29.45700073 -0.561293 -0.817632 0.128169
73.59329987 17.41570282 29.45389938 0.408560 0.227308 -0.883974
73.42639923 17.42089844 29.45980072 -0.208091 -0.954533 -0.213461
73.62080383 17.42849731 29.45499992 0.909538 -0.343796 -0.233550
73.36849976 17.43360138 29.45229912 0.565712 -0.366816 0.738523
73.30629730 17.45110321 29.45969963 -0.946196 -0.258053 -0.195247
73.37429810 17.46350098 29.45199966 -0.498743 -0.774920 0.388272
73.63919830 17.46279907 29.45369911 0.788922 -0.545447 -0.283000
73.67110443 17.46299744 29.45689964 0.938128 -0.289614 0.189843
73.34670258 17.48259735 29.45059967 -0.611464 -0.712559 0.344050
73.63880157 17.49330139 29.45339966 0.682931 -0.726430 0.076848
73.69029999 17.50730133 29.45859909 0.537712 -0.840965 -0.060370
73.29750061 17.51889801 29.45599937 -0.051178 0.068600 0.996331
73.33029938 17.51020050 29.45630074 -0.857194 -0.257310 -0.446106
73.30640411 17.53649902 29.45980072 -0.768690 -0.218960 0.600976
73.75239563 17.53099823 29.45260048 0.000000 0.000000 0.000000
73.74790192 17.55460358 29.45350075 0.266178 0.013370 0.963831
73.70210266 17.57630157 29.45289993 0.874809 -0.238584 -0.421649
73.68900299 17.64150238 29.45619965 0.957572 -0.206431 -0.201103
73.32769775 17.65200043 29.45079994 -0.966044 0.238011 -0.100550
73.33209991 17.67859650 29.45849991 -0.751640 0.643187 -0.146110
73.69650269 17.68180084 29.45179939 0.465877 0.868559 0.169009
73.34429932 17.71710205 29.45019913 -0.941315 -0.335175 0.039810
73.58660126 17.72799683 29.45590019 0.799933 -0.243863 -0.548304
73.68840027 17.72170258 29.45829964 0.975341 0.157313 -0.154796
73.40349579 17.76200104 29.45910072 -0.773103 0.588807 -0.235835
73.42710114 17.77700043 29.45009995 -0.698679 0.653707 -0.290715
73.44920349 17.77580261 29.45929909 -0.391654 0.918315 -0.057478
73.58999634 17.78009796 29.45809937 0.952520 0.192660 -0.235772
73.42110443 17.79579926 29.45689964 -0.731575 0.665205 -0.149332
73.47270203 17.79660034 29.45719910 -0.854390 0.450885 0.258304
73.49440002 17.79979706 29.45630074 0.068816 0.852472 0.518224
73.54059601 17.80549622 29.45350075 0.659178 0.737615 -0.146316
73.43470001 17.81009674 29.45039940 -0.785075 0.615717 -0.067456
73.51940155 17.81459808 29.45829964 0.066845 0.263596 0.962314
73.61100006 17.83260345 29.45870018 0.984683 0.174169 0.007969
73.42359924 17.35279846 29.46949959 0.034145 -0.994598 0.098028
73.49810028 17.38469696 29.46059990 -0.532247 -0.760120 0.372735
73.53189850 17.38379669 29.46479988 -0.128202 -0.903047 -0.409964
73.43550110 17.39360046 29.46610069 0.266581 -0.963794 0.006031
73.53649902 17.40820313 29.46859932 -0.308227 -0.940976 0.139856
73.36399841 17.41079712 29.46450043 -0.750640 -0.551989 0.363108
73.39730072 17.43494797 29.46294975 -0.086776 0.146211 0.985440
73.61280060 17.44840240 29.46069908 0.706113 -0.706113 -0.052994
73.40239716 17.45670319 29.46929932 -0.298504 -0.912987 -0.278119
73.35369873 17.46230316 29.46089935 -0.879022 -0.384478 -0.281951
73.67759705 17.48619843 29.46769905 0.473728 -0.852105 0.222486
73.33399963 17.49140167 29.46549988 -0.667450 -0.624389 0.405770
73.71509552 17.49819946 29.46479988 0.456651 -0.857168 0.238187
73.34970093 17.50959778 29.46439934 -0.985016 -0.157650 0.069935
73.69889832 17.52359772 29.46850014 0.974019 0.221974 -0.044880
73.33809662 17.53900146 29.46800041 -0.933913 -0.309454 0.179012
73.69010162 17.55229950 29.46710014 0.955593 -0.241231 -0.169261
73.71640015 17.55000305 29.46229935 0.912061 -0.144749 -0.383656
73.30979919 17.56839752 29.46549988 -0.867987 0.454093 0.200992
73.31859589 17.58820343 29.46640015 -0.939381 0.332559 -0.083471
73.69409943 17.59629822 29.46669960 0.843750 0.528597 -0.093113
73.34495544 17.60449982 29.46590042 -0.992626 -0.120085 0.016525
73.70629883 17.63849640 29.46629906 0.983973 -0.164985 0.067656
73.35160065 17.65550232 29.46489906 -0.955783 0.289900 -0.049372
73.37400055 17.68170166 29.46780014 -0.844909 0.534701 -0.014966
73.74109650 17.68070221 29.46010017 0.927503 -0.365380 0.078965
73.36499786 17.69960022 29.46549988 -0.505740 0.706033 0.495726
73.65000153 17.69519806 29.46940041 0.774366 0.550838 0.311343
73.68309784 17.69719696 29.46159935 -0.217793 0.974592 0.052319
73.39080048 17.71489716 29.46549988 -0.750667 0.590610 0.296105
73.65000153 17.73419952 29.46400070 0.794557 0.492786 0.354742
73.40879822 17.74060059 29.46739960 -0.756149 0.648336 0.088873
73.59799957 17.75440216 29.46339989 0.717604 0.613932 -0.328834
73.36959839 17.76670074 29.46980095 0.000000 0.000000 0.000000
73.46929932 17.76439667 29.46199989 -0.883181 0.406591 0.233827
73.52349854 17.78759766 29.46660042 0.118799 0.985195 0.123599
73.61790466 17.79149628 29.46030045 0.727668 0.021031 -0.685607
73.46389771 17.83270264 29.46579933 -0.366166 0.921634 0.128504
73.49209595 17.83879852 29.46389961 0.246562 0.595204 -0.764813
73.54640198 17.83550262 29.46929932 -0.762424 0.545514 0.348028
73.55329895 17.33709717 29.47649956 -0.388969 -0.917534 0.082673
73.53430176 17.35579681 29.47620010 -0.873045 -0.462029 -0.155953
73.56990051 17.38919830 29.47400093 0.324534 -0.938591 0.117155
73.61309814 17.38480377 29.47739983 0.229205 -0.932288 0.279827
73.39270020 17.40679932 29.47570038 0.637617 -0.761885 -0.113913
73.62750244 17.41049957 29.47220039 0.954686 -0.278178 0.105786
73.35440063 17.43329620 29.47419930 -0.779004 -0.490724 -0.390312
73.41839600 17.43150330 29.47960091 -0.507482 -0.838776 0.197271
73.32889557 17.44920349 29.47789955 0.026563 0.985126 -0.169770
73.36859894 17.44830322 29.47410011 0.189138 -0.254451 0.948410
73.63700104 17.44029999 29.47690010 0.673979 -0.631135 -0.383954
73.66459656 17.44719696 29.47599983 0.429519 -0.799516 -0.419867
73.67110443 17.47039795 29.47979927 0.912294 0.359475 0.196208
73.36319733 17.48280334 29.47470093 -0.868862 -0.395493 0.297765
73.65720367 17.49230194 29.47450066 0.665308 -0.745088 0.047013
73.28459930 17.55599976 29.47450066 0.416146 -0.201456 0.886700
73.32889557 17.56639862 29.47170067 -0.996194 0.040283 -0.077300
73.70680237 17.56890106 29.47400093 0.955880 -0.086663 -0.280685
73.68989563 17.61959839 29.47649956 0.935427 0.296056 -0.193201
73.34259796 17.62500000 29.47010040 -0.984406 0.072435 -0.160307
73.69229889 17.66419983 29.47800064 0.893031 0.430188 -0.132038
73.71479797 17.66419983 29.47710037 0.628722 -0.687818 0.362787
73.72809601 17.70469666 29.47579956 0.742241 0.670098 -0.006937
73.60379791 17.73229980 29.47089958 0.265966 0.680044 -0.683229
73.67489624 17.74549866 29.47800064 -0.491060 0.853049 0.176544
73.62080383 17.75959778 29.47050095 0.773532 0.629485 -0.073464
73.42110443 17.76039886 29.47120094 -0.948650 0.303096 0.090535
73.66349792 17.78569794 29.47850037 0.811564 0.578041 -0.085048
73.42790222 17.79769897 29.47649956 -0.816035 0.574772 0.061025
73.46040344 17.79740143 29.47809982 -0.377483 0.412231 -0.829200
73.52770233 17.80709839 29.47640038 -0.334290 0.931335 0.144446
73.55079651 17.80629730 29.47159958 -0.703699 0.209712 0.678844
73.48130035 17.81659698 29.47599983 0.406591 0.883181 0.233827
73.60060120 17.83219910 29.47960091 0.578416 0.378510 0.722610
73.46749878 17.33599854 29.48889923 -0.226143 -0.810732 0.539975
73.38700104 17.34510040 29.48030090 0.266429 -0.920261 -0.286592
73.58280182 17.34300232 29.48159981 0.089082 -0.866786 0.490660
73.43989563 17.35870361 29.48749924 -0.049043 0.019826 0.998600
73.55079651 17.36889648 29.48509979 -0.737287 -0.149267 0.658884
73.51729584 17.37129974 29.48889923 0.143107 -0.987784 0.061664
73.45470428 17.38950348 29.48830032 -0.119823 -0.782549 -0.610950
73.49230194 17.38259888 29.48460007 -0.219224 -0.962222 0.161464
73.43630219 17.39790344 29.48810005 -0.307310 -0.738508 -0.600139
73.54209900 17.39189911 29.48880005 0.458253 -0.888284 0.030909
73.57360077 17.40959930 29.48979950 0.533930 -0.825711 -0.181987
73.50319672 17.41200256 29.48240089 0.366290 -0.924575 0.104849
73.44149780 17.42140198 29.48390007 -0.740466 -0.516182 -0.430427
73.62039948 17.44770050 29.48780060 0.873312 -0.479548 -0.085784
73.32279968 17.49040222 29.48640060 -0.963692 0.190116 0.187494
73.34690094 17.49160004 29.48859978 -0.828041 -0.546654 0.124573
73.70709991 17.49590302 29.48979950 0.461433 -0.871596 -0.165530
73.32240295 17.51509857 29.48920059 -0.937514 -0.324263 0.126178
73.36009979 17.51190186 29.48839951 -0.878214 -0.421960 0.225145
73.68699646 17.51619720 29.48749924 0.416243 -0.534699 0.735417
73.72470093 17.51290131 29.48670006 0.882437 -0.434633 -0.180000
73.33689880 17.55760193 29.48780060 -0.918995 -0.049066 0.391203
73.69359589 17.55239868 29.48710060 0.636258 -0.394975 0.662699
73.34059906 17.58709717 29.48150063 -0.955289 0.295361 -0.013594
73.72669983 17.58419800 29.48299980 0.924532 0.237900 -0.297731
73.31400299 17.60099792 29.48320007 -0.863205 0.250314 -0.438429
73.34239960 17.60849762 29.48629951 -0.943667 0.272554 0.187638
73.71520233 17.60420227 29.48970032 0.773905 0.342706 -0.532563
73.34069824 17.63349915 29.48900032 -0.979495 0.165912 0.114295
73.31040192 17.64080048 29.48380089 -0.968315 0.150455 -0.199321
73.65259552 17.64839935 29.48590088 -0.217993 0.262424 0.940007
73.35499573 17.66950226 29.48859978 -0.165805 0.749927 0.640404
73.33169556 17.67739868 29.48049927 0.402758 0.876414 -0.263980
73.66799927 17.67990112 29.48069954 0.667693 0.434583 0.604420
73.71710205 17.68139648 29.48789978 0.462253 0.511958 0.724031
73.37739563 17.70429993 29.48450089 -0.925798 0.350115 0.142537
73.70470428 17.71360016 29.48049927 0.606319 0.602942 -0.518496
73.39329529 17.72399902 29.48740005 -0.790812 0.612020 0.006877
73.64080048 17.73580170 29.48489952 -0.135075 0.948197 0.287535
73.70149994 17.76139832 29.48100090 -0.491903 0.733714 0.468716
73.43510437 17.77189636 29.48419952 -0.651247 0.699488 0.294267
73.45790100 17.77929688 29.48880005 -0.702295 0.699300 -0.133271
73.57820129 17.77989960 29.48329926 0.438291 0.898824 0.003925
73.55699921 17.79270172 29.48679924 -0.671347 -0.070744 0.737759
73.60820007 17.79799652 29.48299980 -0.576712 0.806807 -0.128322
73.50260162 17.80180359 29.48030090 -0.066814 0.977920 -0.198014
73.64690399 17.80239868 29.48119926 0.158637 0.980105 -0.119285
73.44689941 17.81590271 29.48340034 -0.465557 0.850213 0.245753
73.48040009 17.35849762 29.49379921 -0.301474 0.694841 0.652924
73.40710449 17.38059998 29.49209976 -0.799527 -0.598584 0.049528
73.51470184 17.39579773 29.49259949 -0.101181 -0.989709 -0.101181
73.36899567 17.40489960 29.49160004 -0.454005 -0.883966 -0.111733
73.40629578 17.40499878 29.49534988 0.018125 -0.659482 -0.751502
73.48500061 17.40529633 29.49029922 0.181746 -0.980949 -0.068606
73.61540222 17.40899658 29.49410057 0.873222 -0.267869 0.407100
73.32920074 17.42459869 29.49110031 -0.743828 -0.649902 -0.156037
73.59860229 17.42790222 29.49080086 0.519624 -0.854343 -0.009448
73.62829590 17.42790222 29.49200058 0.947296 0.124258 -0.295279
73.69149780 17.45520020 29.49609947 0.969484 -0.173351 0.173351
73.64540100 17.47920227 29.49860001 0.943914 0.182207 0.275365
73.67220306 17.48919678 29.49670029 0.325735 -0.701707 0.633643
73.32959747 17.53749847 29.48999977 -0.833778 -0.491636 0.251212
73.73339844 17.53279877 29.49060059 0.994033 0.099069 -0.045639
73.65920258 17.54129791 29.49799919 0.767531 -0.517637 0.378086
73.72150421 17.55139923 29.49930000 0.662672 -0.012503 -0.748805
73.35589600 17.57800293 29.49069977 -0.792753 0.374668 0.480797
73.68019867 17.58080292 29.49480057 0.992145 0.041573 0.117979
73.33180237 17.59359741 29.49939919 -0.997226 0.069474 -0.026721
73.68109894 17.62409973 29.49930000 0.695670 0.555535 -0.455439
73.70479584 17.62969971 29.49740028 0.914863 -0.311720 -0.256626
73.40070343 17.70500183 29.49370003 -0.884630 0.432842 0.173428
73.65280151 17.71499634 29.49119949 0.943430 -0.282619 0.173395
73.41139984 17.74389648 29.49530029 -0.784306 0.619922 0.023682
73.43979645 17.74770355 29.49049950 -0.551471 0.830768 -0.075524
73.62609863 17.75140381 29.49060059 0.694030 0.671795 -0.258871
73.40800476 17.76419830 29.49410057 -0.967152 0.217063 0.132293
73.60700226 17.76650238 29.49139977 0.801464 0.550328 -0.234083
73.48660278 17.78230286 29.49040031 -0.559310 0.793005 0.241485
73.54180145 17.78320313 29.49880028 0.208768 0.974663 0.080295
73.41449738 17.79170227 29.49550056 -0.992351 -0.098894 -0.073886
73.43540192 17.79010010 29.49900055 -0.678881 0.718192 0.152710
73.47150421 17.80590057 29.49510002 -0.145820 0.960311 0.237779
73.57080078 17.82879639 29.49449921 -0.097739 0.602482 0.792125
73.54370117 17.83409882 29.49130058 -0.564473 0.821701 0.078598
73.42259979 17.33020020 29.50569916 0.808365 -0.531122 -0.253880
73.41179657 17.36000061 29.50029945 -0.180997 -0.594704 0.783306
73.43759918 17.36229706 29.50950050 0.641287 -0.450408 -0.621195
73.46070099 17.36150360 29.50160027 -0.433905 -0.764655 0.476477
73.44640350 17.38569641 29.50930023 -0.657352 -0.733611 0.172345
73.52269745 17.38690186 29.50979996 0.063992 -0.996756 -0.048807
73.63529968 17.40760040 29.50230026 0.764463 -0.639712 -0.079783
73.65430450 17.42800140 29.50219917 0.823939 -0.538787 0.175594
73.41204834 17.43779755 29.50149918 -0.619362 -0.733999 -0.278633
73.35919952 17.44629669 29.50009918 -0.678209 0.728229 0.098568
73.33689880 17.46649933 29.50679970 -0.866127 -0.068342 0.495129
73.36619568 17.47810364 29.50580025 -0.975452 -0.218492 0.027461
73.69979858 17.51280212 29.50959969 0.468943 -0.363311 0.805045
73.34110260 17.52130127 29.50119972 -0.982860 -0.120276 0.139714
73.34259796 17.54489899 29.50900078 -0.871189 -0.252147 -0.421251
73.69110107 17.54519653 29.50620079 0.884690 0.084986 -0.458367
73.31909943 17.57250214 29.50349998 -0.957319 -0.242309 0.157567
73.33889771 17.61959839 29.50720024 -0.860770 0.500579 0.092175
73.36184692 17.63654709 29.50614929 -0.910724 0.310375 0.272489
73.32830048 17.66970062 29.50559998 -0.716594 0.670362 0.192633
73.37000275 17.66190338 29.50690079 -0.836494 0.519255 0.175080
73.70189667 17.67839813 29.50589943 0.343401 0.900507 -0.266762
73.38629913 17.68659973 29.50880051 -0.926036 0.371747 0.065289
73.68230438 17.68180084 29.50370026 0.705048 0.620377 -0.343568
73.63359833 17.71360016 29.50009918 0.922627 0.359339 -0.140128
73.38290405 17.72350311 29.50740051 -0.853488 0.492567 -0.170106
73.68289948 17.73670197 29.50020027 0.730315 0.029550 0.682471
73.66619873 17.74980164 29.50090027 -0.864670 0.499434 0.053955
73.61869812 17.76110077 29.50849915 0.776029 0.582412 -0.242021
73.58540344 17.77429962 29.50909996 0.559838 0.790634 -0.247950
73.65620422 17.78970337 29.50239944 0.440568 0.873719 0.206192
73.49909973 17.79989624 29.50329971 -0.188070 0.979176 0.076441
73.56890106 17.79820251 29.50679970 0.131041 0.980967 -0.143287
73.45220184 17.82279968 29.50329971 0.434518 0.885022 0.167122
73.52649689 17.82569885 29.50419998 -0.200612 0.975983 0.084922
73.56929779 17.35849762 29.51140022 -0.688080 -0.675367 0.265379
73.50080109 17.36000061 29.51989937 0.352979 0.733611 0.580707
73.48040009 17.37899780 29.51059914 -0.266523 -0.948390 0.171820
73.38939667 17.38030243 29.51499939 -0.357954 -0.864927 -0.351809
73.55979919 17.38459778 29.51899910 -0.125726 -0.991081 0.044174
73.40769958 17.39080048 29.51499939 0.244317 -0.924404 0.292895
73.59110260 17.39510345 29.51810074 0.394938 -0.739075 -0.545703
73.35749817 17.40619659 29.51250076 -0.885833 0.145007 0.440763
73.56690216 17.40329742 29.51689911 0.269528 -0.821049 -0.503223
73.40119934 17.41390228 29.51370049 -0.606777 -0.529028 0.593255
73.37180328 17.42839813 29.51339912 -0.510255 -0.370947 0.775911
73.42849731 17.44560242 29.51759911 -0.207086 -0.802265 -0.559898
73.65940094 17.45159912 29.51300049 0.935986 -0.089459 0.340480
73.37449646 17.46330261 29.51700020 -0.841323 -0.078032 0.534871
73.65710449 17.48690033 29.51759911 0.847508 -0.351177 -0.398001
73.33519745 17.49510193 29.51239967 -0.971267 0.114935 0.208399
73.36550140 17.49790192 29.51759911 -0.826024 -0.437493 -0.355364
73.72360229 17.50910187 29.51580048 0.708583 -0.657856 -0.255217
73.67510223 17.52559662 29.51230049 0.957314 0.110710 -0.267006
73.72299957 17.53240204 29.51250076 0.759006 0.082721 0.645808
73.75559998 17.56860352 29.51040077 0.138255 0.590187 -0.795340
73.69210052 17.57330322 29.51989937 0.992606 -0.118669 -0.025508
73.30349731 17.58760071 29.51129913 -0.997002 0.077017 -0.007385
73.70490265 17.58860016 29.51580048 0.475012 -0.582435 0.659646
73.72480011 17.58350372 29.51899910 0.419084 0.581417 -0.697369
73.68579865 17.60009766 29.51759911 0.965647 -0.183747 -0.183747
73.72579956 17.63020325 29.51049995 0.902643 -0.305805 -0.302851
73.69470215 17.65670013 29.51210022 0.915904 -0.144469 -0.374497
73.72959900 17.66709900 29.51819992 -0.220030 0.278891 0.934776
73.67539978 17.71679688 29.51429939 0.958658 0.168395 0.229388
73.40460205 17.72679901 29.51849937 -0.930586 0.358122 0.075885
73.63990021 17.73889923 29.51899910 0.717017 0.670757 0.189662
73.41960144 17.75530243 29.51329994 -0.766558 0.572130 -0.291643
73.43540192 17.76779938 29.51630020 -0.601425 0.794688 -0.082209
73.50460052 17.77639771 29.51860046 -0.432009 0.901868 -0.001305
73.45149994 17.78520203 29.51919937 -0.607982 0.786715 0.106946
73.59690094 17.79720306 29.51899910 0.419214 0.881387 0.217754
73.62139893 17.79969788 29.51210022 -0.009388 0.870425 0.492212
73.40100098 17.80870056 29.51460075 -0.950884 0.140032 0.276063
73.43520355 17.80329895 29.51989937 -0.193856 0.369045 0.908970
73.52369690 17.80030060 29.51549911 0.186199 0.939273 0.288264
73.54489899 17.80429840 29.51259995 0.316965 0.940106 0.125437
73.41559601 17.82859802 29.51350021 0.141608 -0.164165 0.976216
73.49420166 17.82060242 29.51210022 -0.092979 0.949432 -0.299890
73.41920471 17.32240295 29.52980042 0.540326 -0.841268 -0.017783
73.51309967 17.32769775 29.52630043 0.699997 0.631784 0.332945
73.52649689 17.34570313 29.52420044 0.653094 -0.293651 -0.698024
73.44960022 17.35839844 29.52759933 -0.109691 -0.342615 -0.933050
73.42869568 17.38760376 29.52020073 -0.388705 -0.908864 0.151242
73.50709534 17.38909912 29.52960014 0.066561 -0.996229 0.055649
73.53530121 17.38210297 29.52490044 -0.313583 -0.179787 -0.932385
73.39319611 17.39479828 29.52989960 0.701011 -0.697996 0.146233
73.45909882 17.39749908 29.52120018 -0.169394 -0.985251 0.024199
73.48899841 17.39890289 29.52840042 -0.057968 -0.907259 -0.416557
73.43399811 17.41829681 29.52490044 -0.778271 -0.627367 -0.026548
73.63390350 17.41529846 29.52519989 -0.288182 -0.945726 -0.150180
73.38290405 17.42030334 29.52849960 -0.391730 -0.685941 0.613215
73.60030365 17.42710114 29.52379990 0.488384 -0.868395 0.085854
73.35409546 17.43389893 29.52519989 -0.934613 0.097886 -0.341932
73.33460236 17.44039917 29.52499962 -0.941489 -0.091368 0.324423
73.62960052 17.44819641 29.52580070 0.125660 -0.982103 0.140300
73.69169617 17.48650360 29.52379990 0.261060 -0.936746 -0.233140
73.68270111 17.50810242 29.52449989 0.902349 -0.368811 -0.223036
73.33660126 17.51519775 29.52720070 -0.910536 -0.296691 -0.287922
73.35279846 17.52899933 29.52020073 -0.977014 -0.203190 -0.064485
73.68309784 17.54280090 29.52519989 0.928473 -0.014126 -0.371132
73.31349945 17.55149841 29.52269936 -0.850097 -0.481671 -0.212902
73.34429932 17.56279755 29.52280045 -0.136733 0.680660 0.719726
73.33899689 17.58779907 29.52050018 0.188063 0.951138 0.244887
73.37739563 17.58149719 29.52079964 -0.357163 0.575702 -0.735528
73.35350037 17.60790253 29.52939987 -0.998267 -0.058843 -0.001032
73.72350311 17.61710358 29.52569962 0.633634 0.178639 -0.752726
73.69300079 17.62599945 29.52039909 0.896763 -0.292972 -0.331639
73.35040283 17.63310242 29.52709961 -0.830819 0.550542 0.081509
73.73899841 17.64119720 29.52350044 0.994631 -0.099792 0.027415
73.34449768 17.65180206 29.52289963 -0.982418 0.078161 0.169548
73.69560242 17.67759705 29.52589989 0.116230 0.903235 0.413107
73.39340210 17.69969940 29.52869987 -0.898142 0.436163 0.055709
73.68270111 17.69779968 29.52160072 0.859603 0.505070 -0.077378
73.64049530 17.70649719 29.52319908 0.232813 0.971475 -0.045100
73.36190033 17.72669983 29.52499962 -0.394077 0.697466 -0.598535
73.65910339 17.72399902 29.52720070 0.464488 0.879562 -0.103063
73.67739868 17.73590088 29.52009964 -0.333617 0.112106 0.936019
73.63169861 17.75550079 29.52659988 0.985063 -0.169759 -0.028871
73.71360016 17.76850128 29.52300072 0.000000 0.000000 0.000000
73.67259979 17.77330017 29.52669907 0.784779 0.497940 -0.369023
73.47409821 17.79250336 29.52020073 -0.201944 0.899304 -0.387906
73.57789612 17.79350281 29.52490044 0.092979 0.949432 -0.299890
73.50890350 17.81240082 29.52429962 0.246864 0.131922 0.960028
73.43610382 17.84290314 29.52409935 0.782021 0.450353 -0.430843
73.48339844 17.84130096 29.52879906 0.762773 0.549906 0.340265
73.52439880 17.36949921 29.53899956 0.756665 -0.319695 -0.570310
73.43550110 17.37319946 29.53730011 -0.771244 -0.487530 -0.409265
73.46509552 17.37319946 29.53849983 0.471124 -0.880439 0.053568
73.48650360 17.37129974 29.53170013 -0.156349 -0.896499 0.414541
73.56719971 17.37300110 29.53420067 -0.171512 -0.930068 -0.324896
73.36160278 17.38310242 29.53980064 -0.540624 -0.837326 -0.081308
73.40380096 17.42659760 29.53759956 0.150112 -0.916106 -0.371774
73.47360229 17.43060303 29.53100014 0.388765 -0.112064 -0.914496
73.36859894 17.45390320 29.53610039 -0.890092 -0.406187 0.206759
73.33509827 17.46929932 29.53569984 -0.925992 -0.243233 0.288750
73.62310028 17.46199799 29.53960037 -0.397190 -0.885124 -0.242479
73.67150116 17.46430206 29.53689957 0.794606 -0.367606 -0.483185
73.35459900 17.48529816 29.53370094 -0.874333 -0.476010 -0.094637
73.33300018 17.49299622 29.53949928 -0.798488 -0.484853 -0.356839
73.33799744 17.54109955 29.53100014 -0.946037 -0.088156 -0.311837
73.69840240 17.54679871 29.53919983 0.877580 0.385169 0.285478
73.74189758 17.56970215 29.53730011 0.893788 0.349485 0.281075
73.67939758 17.59149933 29.53459930 0.970617 0.030294 0.238716
73.74829865 17.59860229 29.53199959 0.966767 0.220129 0.130018
73.31120300 17.60350037 29.53019905 -0.358820 0.891840 -0.275443
73.70020294 17.60710144 29.53260040 0.597991 -0.328976 0.730878
73.71469879 17.64019775 29.53940010 0.026657 -0.331307 -0.943146
73.37070465 17.65339661 29.53800011 -0.929243 0.367798 -0.035090
73.34609985 17.67549896 29.53750038 -0.681121 0.563975 0.466911
73.38749695 17.67694855 29.53730011 -0.821582 0.570049 -0.006835
73.36479950 17.68509674 29.53569984 -0.671481 0.737907 -0.067870
73.73539734 17.68409729 29.53000069 -0.055795 0.736777 -0.673829
73.40920258 17.75489807 29.53720093 -0.635017 0.454062 -0.624964
73.61360168 17.76529694 29.53039932 0.750417 0.601285 -0.274465
73.41159821 17.77529907 29.53100014 -0.982137 0.187129 0.019759
73.46589661 17.77559662 29.53339958 -0.857680 0.512398 0.042815
73.69309998 17.77089691 29.53089905 0.343746 -0.500430 0.794612
73.43779755 17.78260040 29.53610039 -0.643501 0.653427 0.398673
73.54299927 17.78220367 29.53109932 0.138097 0.966682 -0.215535
73.61869812 17.78520203 29.53219986 0.633186 0.136217 -0.761919
73.64820099 17.78739929 29.53140068 0.459041 0.831913 -0.311772
73.56030273 17.80249786 29.53170013 0.144317 0.914940 -0.376905
73.47219849 17.81040192 29.53100014 -0.505188 0.858961 -0.083490
73.52559662 17.81330109 29.53969955 0.032615 0.998444 -0.045240
73.42800140 17.33650208 29.54170036 0.757531 -0.543411 0.361733
73.51760101 17.33560181 29.54730034 0.815309 0.015124 0.578828
73.44809723 17.34220123 29.54080009 0.493475 -0.424618 -0.759066
73.59379578 17.37220001 29.54439926 0.453001 -0.891390 -0.014613
73.40449524 17.38089752 29.54409981 -0.177975 -0.946938 -0.267643
73.44049835 17.39320374 29.54520035 -0.439694 -0.874947 0.202822
73.47240448 17.39330292 29.54439926 -0.555297 -0.616059 -0.558673
73.54059601 17.39060211 29.54579926 -0.273193 -0.955521 -0.111107
73.41359711 17.40560150 29.54290009 -0.597750 -0.775999 0.201299
73.62310028 17.40989685 29.54619980 0.155587 -0.834241 -0.528995
73.65900421 17.40200043 29.54750061 0.261573 -0.648384 -0.714967
73.69650269 17.40450287 29.54470062 -0.038309 0.705167 -0.708005
73.35350037 17.41249847 29.54640007 -0.760120 -0.372735 0.532247
73.51360321 17.41239929 29.54039955 -0.205264 -0.898212 -0.388692
73.65710449 17.44229889 29.54599953 0.752294 0.246577 -0.610945
73.69059753 17.48259735 29.54680061 0.445990 -0.433016 -0.783320
73.72209930 17.48729706 29.54800034 0.295193 -0.952608 -0.073476
73.65769958 17.49710083 29.54249954 0.850419 -0.439872 -0.288618
73.34149933 17.51509857 29.54730034 -0.831165 -0.411640 -0.373788
73.31099701 17.52760315 29.54299927 -0.877504 -0.452577 -0.158620
73.68309784 17.52040100 29.54039955 0.975587 -0.092736 -0.199074
73.33309937 17.56539917 29.54470062 -0.920739 0.389393 0.024744
73.34180450 17.59829712 29.54840088 -0.918752 0.380410 0.105746
73.36579895 17.61830139 29.54840088 -0.907239 0.414855 0.069369
73.32559967 17.62000275 29.54910088 -0.856891 0.509617 0.077643
73.73500061 17.63069916 29.54660034 0.857732 0.507291 -0.083371
