103.26499939 13.15509796 27.97310066 0.983477 0.180592 -0.012653
103.35430145 13.16929626 27.97150040 -0.216732 0.917162 -0.334427
103.21880341 13.17910004 27.97660065 0.943579 0.270575 0.190913
103.25610352 13.17089844 27.97990036 0.439029 0.879526 -0.183541
103.26819611 13.17970276 27.97489929 0.708997 0.684602 -0.169244
103.38330078 13.17960358 27.97660065 -0.460039 0.885746 0.061796
103.29669952 13.18720245 27.97800064 0.033062 0.966132 -0.255921
103.31580353 13.18509674 27.97710037 0.079981 0.963581 -0.255177
103.34490204 13.18589783 27.97130013 -0.295904 0.911033 -0.287158
103.37129974 13.18730164 27.97340012 -0.293795 0.949893 -0.106715
103.22660065 13.19110107 27.97050095 0.825621 0.563738 -0.023432
103.28019714 13.19450378 27.97780037 0.532374 0.823587 -0.195659
103.30680084 13.19360352 27.97599983 -0.033524 0.986057 -0.162994
103.32759857 13.19270325 27.97909927 -0.052503 0.948900 -0.311178
103.37789917 13.19740295 27.97340012 -0.303932 0.946304 -0.110159
103.22769928 13.21910095 27.97419930 0.914337 0.379457 -0.141421
103.24590302 13.21649933 27.97730064 0.749293 0.655814 -0.092018
103.25559998 13.21070099 27.97349930 0.674907 0.723223 -0.146456
103.37300110 13.21810150 27.97909927 -0.391586 0.885908 -0.248650
103.39450073 13.21040344 27.97240067 -0.819446 0.566867 -0.084671
103.26519775 13.22170258 27.97540092 0.763515 0.644083 -0.046920
103.22070313 13.23010254 27.97400093 0.889377 0.456125 -0.030947
103.23120117 13.25460052 27.97690010 0.899867 0.422728 -0.107426
103.19480133 13.26699829 27.97649956 0.887632 0.458089 0.047576
103.23809814 13.26599884 27.97380066 0.884171 0.458199 0.091079
103.20469666 13.28859711 27.97330093 0.930896 0.115513 0.346538
103.23159790 13.29869843 27.97640038 0.866157 0.156288 0.474707
103.46019745 13.30449677 27.97879982 -0.604900 0.693905 0.390630
103.20275116 13.31404877 27.97504997 0.910685 -0.009120 0.413000
103.21140289 13.35449982 27.97369957 0.887010 -0.441362 0.135694
103.21734619 13.38330078 27.97640038 0.619057 -0.785247 -0.012464
103.26959991 13.38220215 27.97879982 0.473204 -0.880723 -0.020108
103.28559875 13.41490173 27.97349930 0.588068 -0.794566 0.151132
103.34960175 13.41300201 27.97800064 0.051176 -0.861692 -0.504844
103.29100037 13.42310333 27.97750092 0.591338 -0.793912 0.141504
103.32170105 13.42130280 27.97470093 0.243308 -0.944363 0.221314
103.30580139 13.44439697 27.97640038 0.377627 -0.883136 0.278331
103.35079956 13.44460297 27.97760010 -0.083910 -0.986833 -0.138275
103.27719879 13.13580322 27.98640060 -0.369948 0.805557 -0.462835
103.28240204 13.16870117 27.98509979 0.079211 0.966872 -0.242661
103.29830170 13.17169952 27.98010063 -0.033269 0.987732 -0.152576
103.34880066 13.17430115 27.98439980 -0.235198 0.891978 -0.386080
103.39929962 13.17680359 27.98469925 -0.349277 0.935330 -0.056251
103.28189850 13.18620300 27.98889923 0.396246 0.917554 -0.032911
103.36160278 13.18949890 27.98040009 -0.199154 0.899828 -0.388133
103.40360260 13.18309784 27.98270035 -0.667748 0.733477 0.126977
103.27600098 13.19909668 27.98769951 0.602984 0.794908 -0.067317
103.34079742 13.19049835 27.98119926 -0.186832 0.850460 -0.491743
103.37999725 13.19779968 27.98940086 -0.247621 0.963541 -0.101358
103.25620270 13.20420074 27.98450089 0.707188 0.704308 0.061933
103.21749878 13.22579956 27.98410034 0.825520 0.562918 0.040508
103.19789886 13.25839996 27.98259926 0.875468 0.480891 0.047952
103.21440125 13.25109863 27.98679924 0.850028 0.526721 0.004041
103.21459961 13.27500153 27.98550034 0.878249 0.450048 0.161668
103.20480347 13.28299713 27.98839951 0.925539 0.216857 0.310403
103.20390320 13.30490112 27.98719978 0.987609 -0.114454 0.107374
103.20490265 13.32559967 27.98390007 0.931056 -0.235943 0.278328
103.20310211 13.34709930 27.98970032 0.950089 -0.303770 -0.071095
103.21910095 13.34059906 27.98189926 0.944929 -0.325178 -0.036981
103.23919678 13.37599945 27.98060036 0.547575 -0.797182 -0.254287
103.27269745 13.39980316 27.98859978 0.551929 -0.828614 0.093669
103.26010132 13.40830231 27.98839951 0.549362 -0.831891 0.078480
103.28600311 13.40119934 27.98970032 0.517259 -0.855828 -0.001344
103.31089783 13.40859985 27.98380089 0.386590 -0.920642 0.054468
103.30539703 13.42649841 27.98749924 0.554502 -0.831055 0.043299
103.38300323 13.42379761 27.98909950 -0.242299 -0.960027 -0.140140
103.26069641 13.14309692 27.99119949 0.942395 0.285864 -0.173707
103.25689697 13.16220093 27.99900055 -0.310482 0.606486 -0.731966
103.31030273 13.16760254 27.99130058 -0.134455 0.951833 -0.275566
103.31909943 13.17800140 27.99419975 -0.106959 0.988494 -0.106959
103.34230042 13.18810272 27.99430084 -0.237033 0.946761 -0.217851
103.25890350 13.19069672 27.99670029 0.631374 0.774804 0.032342
103.32879639 13.19249725 27.99510002 -0.194700 0.960256 -0.199998
103.33689880 13.19290161 27.99620056 -0.184403 0.963865 -0.192250
103.36090088 13.19049835 27.99930000 -0.066914 0.938108 -0.339818
103.39219666 13.19740295 27.99950027 -0.115513 0.930896 -0.346538
103.39379883 13.20780182 27.99139977 -0.670560 0.741145 0.032469
103.24359894 13.21649933 27.99130058 0.832371 0.533723 0.149324
103.23850250 13.22270203 27.99220085 0.812819 0.527945 0.246168
103.25240326 13.22679901 27.99130058 0.792878 0.609379 -0.001369
103.22769928 13.23960114 27.99699974 0.806450 0.570051 0.157101
103.44930267 13.23609924 27.99740028 -0.222949 -0.052387 -0.973422
103.23239899 13.25450134 27.99690056 0.771005 0.635691 0.038057
103.19100189 13.26360321 27.99749947 0.961313 0.273424 -0.033405
103.21070099 13.26069641 27.99169922 0.833195 0.537403 0.130324
103.18800354 13.29250336 27.99419975 0.990939 0.115973 0.067747
103.19950104 13.29869843 27.99419975 0.989531 0.047011 0.136448
103.17800140 13.31580353 27.99390030 0.991138 -0.111403 -0.072354
103.19370270 13.32820129 27.99589920 0.933859 -0.357621 -0.003791
103.44029999 13.35250092 27.99320030 -0.954462 -0.084179 0.286209
103.22280121 13.36450195 27.99469948 0.698823 -0.650629 -0.297201
103.24700165 13.36930084 27.99279976 0.639909 -0.751855 -0.158843
103.44219971 13.36450195 27.99909973 -0.946588 0.090841 0.309385
103.20999908 13.37529755 27.99550056 0.668598 -0.658790 -0.344925
103.20279694 13.38849640 27.99329948 0.610370 -0.776149 -0.158244
103.24220276 13.38990021 27.99049950 0.377253 -0.923804 -0.065319
103.24829865 13.39140320 27.99049950 0.460443 -0.887520 -0.017350
103.36460114 13.40989685 27.99909973 -0.155023 -0.905961 -0.393958
103.28730011 13.42700195 27.99539948 0.573236 -0.810740 0.118752
103.31289673 13.44090271 27.99340057 0.426630 -0.901274 -0.075449
103.33119965 13.44190216 27.99349976 0.138836 -0.989913 0.028219
103.28440094 13.17849731 28.00099945 0.245940 0.955844 -0.160858
103.29479980 13.17330170 28.00309944 0.091681 0.989922 -0.107928
103.21959686 13.18350220 28.00049973 0.810214 0.577477 0.100368
103.34359741 13.18789673 28.00930023 -0.311766 0.943327 -0.113734
103.25730133 13.19689941 28.00860023 0.640588 0.745048 0.185878
103.38069916 13.19490051 28.00539970 -0.195321 0.885552 -0.421482
103.22920227 13.20739746 28.00329971 0.739191 0.669756 0.070881
103.25910187 13.20520020 28.00650024 0.693847 0.699946 0.169268
103.41480255 13.20839691 28.00950050 -0.262251 0.789894 -0.554339
103.25485229 13.21374893 28.00645065 0.734438 0.662050 0.149301
103.37409973 13.22389984 28.00609970 -0.496529 0.848423 -0.183403
103.42680359 13.22669983 28.00740051 -0.024048 -0.049141 -0.998502
103.44640350 13.22019958 28.00259972 -0.414927 -0.122368 -0.901588
103.20899963 13.23729706 28.00489998 0.785650 0.548532 0.286122
103.23729706 13.23390198 28.00309944 0.763732 0.593664 0.253528
103.42160034 13.25530243 28.00009918 -0.555389 0.203490 -0.806309
103.43669891 13.27439880 28.00200081 -0.914683 0.054908 -0.400425
103.18579865 13.28299713 28.00530052 0.985486 0.111361 -0.128125
103.19909668 13.30680084 28.00309944 0.987042 -0.098349 0.126787
103.20179749 13.31919861 28.00300026 0.987754 -0.153803 0.026203
103.16750336 13.32469940 28.00569916 0.611311 -0.661282 0.434747
103.21929932 13.34580231 28.00679970 0.822771 -0.567476 0.031912
103.20369720 13.35729980 28.00860023 0.921598 -0.387973 0.011601
103.22799683 13.37870026 28.00650024 0.646896 -0.744311 -0.165910
103.23760223 13.37290192 28.00169945 0.693138 -0.718863 -0.052879
103.24759674 13.37580109 28.00869942 0.649930 -0.759422 0.029478
103.25479889 13.38500214 28.00070000 0.477257 -0.878738 0.006647
103.27400208 13.40329742 28.00860023 0.594918 -0.803757 0.006870
103.29119873 13.40239716 28.00970078 0.514490 -0.856563 -0.040001
103.36109924 13.41719818 28.00499916 -0.256328 -0.866056 -0.429236
103.39240265 13.41459656 28.00119972 -0.643372 0.209290 -0.736390
103.30069733 13.42269897 28.00860023 0.653561 -0.754109 0.064638
103.34500122 13.42949677 28.00379944 -0.083985 -0.995817 0.035993
103.32810211 13.43180084 28.00860023 -0.003312 -0.990424 -0.138019
103.37069702 13.44120026 28.00979996 -0.357076 -0.857910 -0.369442
103.31510162 13.16390228 28.01729965 -0.235207 0.960537 0.148482
103.22769928 13.17819977 28.01560020 0.356613 0.870871 -0.338247
103.39720154 13.17459869 28.01070023 -0.185371 0.888905 -0.418909
103.23339844 13.18779755 28.01860046 0.527748 0.817009 0.232332
103.29540253 13.19290161 28.01390076 0.163794 0.986201 0.024054
103.20249939 13.20839691 28.01320076 0.820140 0.366446 0.439417
103.42250061 13.20749664 28.01959991 -0.602763 0.666212 -0.439132
103.22679901 13.21669769 28.01320076 0.789304 0.532026 0.306510
103.35520172 13.21080017 28.01409912 -0.347076 0.928738 -0.130325
103.24659729 13.22109985 28.01429939 0.768063 0.585116 0.260227
103.22370148 13.23850250 28.01700020 0.776591 0.560606 0.287450
103.20390320 13.24720001 28.01379967 0.859473 0.427438 0.280363
103.40599823 13.24079895 28.01009941 -0.540368 0.740748 -0.399117
103.23979950 13.25589752 28.01589966 0.752729 0.582603 0.306549
103.43560028 13.25019836 28.01320076 -0.809620 0.348343 -0.472411
103.19599915 13.26709747 28.01650047 0.969415 0.203616 0.137024
103.21240234 13.28230286 28.01539993 0.982466 0.173517 -0.068210
103.19419861 13.31449890 28.01499939 0.990110 -0.121309 -0.070475
103.19709778 13.32109833 28.01189995 0.940919 -0.338631 -0.001250
103.21269989 13.32640076 28.01799965 0.909387 -0.402788 -0.103811
103.21640015 13.34300232 28.01980019 0.867137 -0.494115 -0.062634
103.24089813 13.35849762 28.01280022 0.755700 -0.653232 -0.046964
103.44969940 13.36949921 28.01609993 0.000000 0.000000 0.000000
103.19450378 13.37169647 28.01840019 0.949274 -0.292594 0.115184
103.21759796 13.37449646 28.01449966 0.490832 -0.848074 -0.199635
103.26609802 13.38770294 28.01569939 0.478515 -0.874720 0.076730
103.33489990 13.41010284 28.01189995 -0.048557 -0.981807 -0.183571
103.32700348 13.45030212 28.01840019 -0.070475 -0.990110 -0.121309
103.26529694 13.17500305 28.02589989 0.326332 0.942299 0.074702
103.30259705 13.17980194 28.02210045 0.036529 0.998809 -0.032354
103.27565002 13.18574905 28.02434921 0.247681 0.967074 0.058497
103.26229858 13.19080353 28.02070045 0.475193 0.848667 0.232283
103.36309814 13.19460297 28.02230072 -0.215445 0.974979 -0.054774
103.25019836 13.21170044 28.02440071 0.606617 0.701966 0.373176
103.20999908 13.22280121 28.02510071 0.814780 0.459008 0.354183
103.23609924 13.22630310 28.02219963 0.728518 0.540193 0.421252
103.41090393 13.22389984 28.02330017 -0.477514 0.774126 -0.415583
103.19519806 13.23110199 28.02389908 0.860796 0.469932 0.195432
103.20259857 13.25479889 28.02169991 0.750403 0.565639 0.341976
103.19619751 13.28150177 28.02140045 0.993814 0.106992 0.029781
103.19740295 13.33920288 28.02280045 0.918525 -0.320550 -0.231428
103.23110199 13.34770203 28.02289963 0.787461 -0.614361 -0.049660
103.22039795 13.36450195 28.02059937 0.668852 -0.734106 -0.117160
103.24400330 13.40930176 28.02529907 0.586107 -0.794032 0.161217
103.25720215 13.40350342 28.02849960 0.506112 -0.848438 0.154932
103.28559875 13.40740204 28.02960014 0.526777 -0.849685 0.023260
103.30100250 13.41120148 28.02370071 0.461471 -0.886616 0.030944
103.35980225 13.41549683 28.02499962 -0.102052 -0.923910 -0.368748
103.30359650 13.43299866 28.02350044 0.429429 -0.898901 -0.086990
103.28050232 13.44329834 28.02919960 0.302004 -0.931295 0.203677
103.35900116 13.44100189 28.02070045 -0.473057 -0.718715 -0.509574
103.31159973 13.16560364 28.03630066 0.152801 0.988111 0.016978
103.28590393 13.17060089 28.03809929 0.259477 0.963951 0.058915
103.25209808 13.18460083 28.03969955 0.378367 0.911197 0.162967
103.28285217 13.18935013 28.03639984 0.257984 0.961342 0.096263
103.29149628 13.18599701 28.03700066 0.185074 0.981954 -0.038901
103.31539917 13.18569946 28.03310013 -0.041666 0.992110 0.118242
103.33029938 13.19760132 28.03510094 -0.303659 0.943366 0.133610
103.37059784 13.19960022 28.03429985 -0.020262 0.997083 0.073582
103.20960236 13.20839691 28.03019905 0.815340 0.578850 0.012374
103.23280334 13.20189667 28.03540039 0.625053 0.775878 0.085564
103.25270081 13.20030212 28.03560066 0.520430 0.842950 0.136338
103.23220062 13.21209717 28.03129959 0.765514 0.637686 0.085703
103.37629700 13.21859741 28.03219986 -0.541916 0.819667 0.185670
103.39070129 13.21829987 28.03730011 -0.415426 0.902188 0.116095
103.17849731 13.23130035 28.03479958 0.989797 0.053906 0.131896
103.22429657 13.23560333 28.03899956 0.839845 0.526185 0.133378
103.20580292 13.24050140 28.03779984 0.943123 0.247173 0.222317
103.21320343 13.24749756 28.03280067 0.896264 0.370613 0.243630
103.24669647 13.24510193 28.03510094 0.656889 0.727987 0.196294
103.20379639 13.25109863 28.03969955 0.968431 0.153045 0.196773
103.20639801 13.26560211 28.03359985 0.993592 0.077642 -0.082143
103.42739868 13.27610016 28.03890038 -0.803685 0.594028 -0.034943
103.20629883 13.30470276 28.03019905 0.988357 -0.095193 -0.118697
103.18810272 13.32399750 28.03689957 0.973260 -0.163690 -0.161153
103.21179962 13.32599640 28.03100014 0.919353 -0.349892 -0.179904
103.19889832 13.33319855 28.03380013 0.943225 -0.305438 -0.130518
103.20140076 13.33850098 28.03980064 0.958366 -0.280835 0.051633
103.20735168 13.34875107 28.03670120 0.879640 -0.446363 0.164296
103.22019958 13.34950256 28.03409958 0.845160 -0.519315 0.126556
103.23739624 13.35659790 28.03380013 0.740261 -0.667544 0.079989
103.19529724 13.36299896 28.03949928 0.895815 -0.433279 0.098916
103.21659851 13.36119843 28.03969955 0.849368 -0.523660 0.065984
103.24320221 13.37339783 28.03370094 0.698021 -0.694966 0.172596
103.22959900 13.38729858 28.03650093 0.607528 -0.755093 0.246465
103.27960205 13.38710022 28.03680038 0.481282 -0.865145 0.141040
103.28600311 13.38990021 28.03280067 0.594187 -0.799478 0.088188
103.34940338 13.39479828 28.03820038 0.003044 -0.999365 -0.035510
103.27559662 13.40820313 28.03650093 0.661025 -0.717283 0.220342
103.31069946 13.41629791 28.03070068 0.381725 -0.901335 -0.204651
103.34230042 13.41334915 28.03540039 -0.077613 -0.974473 -0.210664
103.29149628 13.42790222 28.03840065 0.400317 -0.915576 0.038314
103.31960297 13.43399811 28.03759956 0.037464 -0.972845 -0.228407
103.33509827 13.17350006 28.04339981 -0.442221 0.896467 0.028056
103.26709747 13.18710327 28.04479980 0.168782 0.982764 0.075413
103.27140045 13.18039703 28.04490089 0.202345 0.964726 0.168403
103.24189758 13.19120026 28.04560089 0.523099 0.836064 0.165424
103.25830078 13.19339752 28.04570007 0.448944 0.891024 0.067273
103.35859680 13.19799805 28.04829979 -0.309326 0.919346 0.243145
103.21409607 13.21620178 28.04710007 0.695937 0.704956 -0.136782
103.21569824 13.24919891 28.04579926 0.977058 0.209284 0.039465
103.42210388 13.25279999 28.04910088 -0.849266 0.527922 -0.006751
103.43560028 13.27439880 28.04899979 -0.620811 0.732525 -0.279285
103.19750214 13.28150177 28.04240036 0.964372 0.173561 -0.199660
103.20300293 13.30629730 28.04310036 0.997461 -0.068900 0.018020
103.21510315 13.30220032 28.04929924 0.992841 -0.052967 -0.107060
103.23190308 13.33899689 28.04500008 0.925676 -0.371074 0.073679
103.19090271 13.34010315 28.04369926 0.969676 -0.234659 0.068287
103.21260071 13.36940002 28.04549980 0.781177 -0.622964 -0.040966
103.26989746 13.36689758 28.04890060 0.624960 -0.735713 0.261059
103.23329926 13.37789917 28.04660034 0.747630 -0.663784 0.020962
103.40029907 13.37629700 28.04170036 -0.125503 -0.804697 0.580268
103.25980377 13.39949799 28.04750061 0.545264 -0.775522 0.318204
103.30125427 13.40515137 28.04475021 0.355739 -0.922132 -0.152061
103.31990051 13.40940094 28.04680061 -0.310200 -0.950533 -0.016195
103.24909973 13.41629791 28.04430008 0.571557 -0.625510 0.531093
103.29599762 13.44499969 28.04030037 0.466962 -0.878904 -0.097342
103.32050323 13.15730286 28.05739975 0.317372 0.946976 -0.050111
103.25440216 13.16970062 28.05789948 0.336865 0.934833 -0.112288
103.30740356 13.16670227 28.05330086 0.081383 0.996678 -0.003171
103.32099915 13.16950226 28.05529976 0.065825 0.997818 -0.005224
103.30999756 13.17189789 28.05620003 0.147286 0.982311 -0.115638
103.25479889 13.18769836 28.05270004 0.360569 0.928902 -0.084446
103.27140045 13.18769836 28.05879974 0.198436 0.957551 -0.209090
103.30879974 13.18299866 28.05310059 0.173179 0.983705 -0.048302
103.21980286 13.19619751 28.05039978 0.756498 0.643985 -0.113993
103.30519867 13.19609833 28.05190086 0.180128 0.981760 -0.060838
103.37570190 13.19349670 28.05039978 -0.379122 0.885617 0.268233
103.39369965 13.19680023 28.05450058 -0.584888 0.722509 0.368627
103.21230316 13.21170044 28.05719948 0.791279 0.599006 -0.122759
103.41090393 13.22190094 28.05130005 -0.766547 0.634636 -0.098200
103.19110107 13.23380280 28.05879974 0.919802 0.392363 -0.003859
103.20970154 13.23249817 28.05200005 0.855516 0.517634 0.012164
103.21450043 13.23799896 28.05789948 0.884595 0.460986 -0.070601
103.20110321 13.24960327 28.05870056 0.974016 0.201305 -0.103778
103.45079803 13.27469635 28.05610085 -0.690776 0.705958 0.156373
103.18499756 13.28430176 28.05330086 0.947044 0.236419 0.217287
103.20929718 13.29270172 28.05529976 0.995250 0.022842 -0.094630
103.18379974 13.30480194 28.04999924 0.988643 -0.030788 0.147099
103.20289612 13.31939697 28.05200005 0.942363 -0.334305 0.013877
103.21420288 13.32779694 28.04999924 0.935759 -0.340398 -0.092108
103.21859741 13.35800171 28.05669975 0.772175 -0.619239 0.142440
103.24009705 13.35970306 28.05179977 0.675017 -0.712089 0.193083
103.20729828 13.37210083 28.05850029 0.640271 -0.768047 0.012500
103.20500183 13.38130188 28.05940056 0.760793 -0.646603 -0.055668
103.25250244 13.38670349 28.05859947 0.781687 -0.571775 0.249075
103.27120209 13.38909912 28.05270004 0.452858 -0.874939 0.171470
103.42079926 13.38130188 28.05179977 -0.125503 -0.804697 0.580268
103.24079895 13.39579773 28.05050087 0.558762 -0.636415 0.531753
103.39669800 13.39679718 28.05439949 -0.574322 -0.780890 0.245691
103.29949951 13.40599823 28.05769920 0.365325 -0.903852 -0.222688
103.36550140 13.40299988 28.05920029 -0.251023 -0.958094 0.137997
103.27410126 13.42539978 28.05340004 0.377535 -0.897564 0.227696
103.30215454 13.42599869 28.05254936 0.347144 -0.903745 -0.250471
103.26779938 13.17479706 28.06489944 0.248578 0.949487 -0.191527
103.33879852 13.17500305 28.06739998 -0.214399 0.957470 0.193092
103.38300323 13.17459869 28.06069946 -0.197435 0.954939 0.221610
103.24160004 13.18419647 28.06669998 0.497757 0.852243 -0.160996
103.28730011 13.18139648 28.06800079 0.245896 0.952679 -0.178711
103.32749939 13.18910217 28.06520081 -0.067864 0.990357 -0.120775
103.39080048 13.19400024 28.06949997 -0.448438 0.877887 0.167982
103.24379730 13.20700073 28.06940079 0.644046 0.752138 -0.139618
103.29090118 13.20739746 28.06669998 0.062902 0.983890 -0.167344
103.22370148 13.21430206 28.06719971 0.778834 0.616269 -0.116751
103.24860382 13.22910309 28.06920052 0.735652 0.677244 -0.012516
103.18029785 13.23770142 28.06870079 0.950701 0.308506 -0.031480
103.21089935 13.24179840 28.06889915 0.901546 0.423851 -0.086979
103.20819855 13.27200317 28.06450081 0.995622 0.069309 -0.062708
103.21360016 13.27670288 28.06850052 0.986221 0.145276 -0.079134
103.19629669 13.28330231 28.06030083 0.988298 0.136197 0.068680
103.17199707 13.29160309 28.06410027 0.958392 -0.001215 0.285453
103.22389984 13.30699921 28.06730080 0.975341 -0.154796 -0.157313
103.20379639 13.31069946 28.06310081 0.993275 -0.061869 0.097865
103.19499969 13.33370209 28.06979942 0.990076 -0.131629 0.049218
103.20320129 13.35070038 28.06970024 0.885833 -0.440763 0.145007
103.24829865 13.38780212 28.06859970 0.719702 -0.640264 0.268498
103.39530182 13.38410187 28.06459999 -0.688302 -0.722788 0.061789
103.24490356 13.39499664 28.06749916 0.801027 -0.570864 0.180193
103.27339935 13.39669800 28.06970024 0.321563 -0.931279 0.171222
103.34420013 13.39910126 28.06909943 -0.001152 -0.980402 0.197002
103.27200317 13.40640259 28.06850052 0.351727 -0.931200 0.095680
103.36990356 13.40720367 28.06719971 -0.385365 -0.908666 0.160687
103.28099823 13.41449738 28.06850052 0.362371 -0.931992 -0.008900
103.33390045 13.41989899 28.06170082 -0.168910 -0.983931 0.057878
103.39319611 13.41719818 28.06719971 -0.569498 -0.772550 0.280783
103.24440002 13.42549896 28.06419945 0.185333 -0.976420 0.110702
103.26059723 13.42050171 28.06830025 0.186523 -0.977086 -0.102526
103.27890015 13.17970276 28.07390022 0.212312 0.970023 -0.118233
103.29859924 13.17680359 28.07710075 0.203186 0.963493 -0.174346
103.29260254 13.18240356 28.07099915 0.162732 0.969988 -0.180671
103.33350372 13.18710327 28.07320023 -0.094032 0.995437 -0.016212
103.36949921 13.18640137 28.07239914 -0.304114 0.934561 0.184690
103.23400116 13.20549774 28.07139969 0.725010 0.680712 -0.104839
103.30359650 13.20610046 28.07880020 0.314104 0.934009 -0.170197
103.38289642 13.20439911 28.07130051 -0.442489 0.868478 0.223494
103.39179993 13.20169830 28.07139969 -0.438509 0.884254 0.160642
103.40750122 13.22720337 28.07430077 -0.856294 0.476715 0.198756
103.20439911 13.25199890 28.07570076 0.923573 0.378731 -0.059800
103.17500305 13.26650238 28.07839966 0.948593 0.304858 -0.085046
103.21350098 13.26010132 28.07069969 0.944481 0.325107 -0.047545
103.22290039 13.27320099 28.07159996 0.993173 0.082482 -0.082482
103.43399811 13.27500153 28.07290077 -0.673807 0.722261 0.155960
103.19280243 13.28130341 28.07530022 0.958338 0.267714 0.099584
103.21669769 13.34989929 28.07579994 0.879298 -0.473257 0.053499
103.21299744 13.35579681 28.07069969 0.755705 -0.653621 0.041117
103.23010254 13.35500336 28.07979965 0.752776 -0.658157 0.012523
103.22899628 13.38259888 28.07049942 0.775341 -0.622911 0.104063
103.24310303 13.40699768 28.07139969 0.531702 -0.842456 0.086954
103.22119904 13.41919708 28.07509995 0.677187 -0.680389 0.280160
103.30699921 13.41100311 28.07469940 -0.016947 -0.999852 0.002991
103.35420227 13.41510010 28.07799911 0.341736 -0.743397 0.574959
103.28440094 13.42040253 28.07449913 0.216342 -0.970377 -0.107539
103.30319977 13.42630005 28.07349968 0.057935 -0.991706 -0.114733
103.33029938 13.42469788 28.07270050 -0.219224 -0.907385 0.358599
103.36109924 13.42289734 28.07089996 -0.155639 -0.747974 0.645222
103.31690216 13.16850281 28.08930016 0.176646 0.972189 -0.153771
103.31259918 13.17520142 28.08320045 0.347777 0.935716 -0.059056
103.30390167 13.18509674 28.08799934 0.191280 0.956400 -0.220708
103.23789978 13.19750214 28.08149910 0.641026 0.757036 -0.126421
103.26429749 13.19899750 28.08659935 0.330993 0.932549 -0.144209
103.35079956 13.19349670 28.08230019 -0.194296 0.980788 -0.017452
103.36479950 13.19190216 28.08740044 -0.221266 0.975207 -0.003512
103.41840363 13.19159698 28.08469963 -0.673059 0.688971 0.268905
103.20800018 13.22589874 28.08799934 0.816045 0.551544 -0.172827
103.22699738 13.22019958 28.08020020 0.806309 0.555389 -0.203490
103.21600342 13.23930359 28.08189964 0.897216 0.439865 -0.039009
103.21119690 13.24690247 28.08379936 0.914870 0.403274 -0.019576
103.21610260 13.25959778 28.08670044 0.918458 0.392106 0.051838
103.21060181 13.27390289 28.08849907 0.962919 0.179973 0.200991
103.21990204 13.30590057 28.08830070 0.996107 0.033674 0.081470
103.17310333 13.31040192 28.08390045 0.989155 -0.128718 0.070737
103.19570160 13.31770325 28.08300018 0.921454 -0.283192 0.265942
103.20809937 13.32800293 28.08399963 0.864927 -0.357954 0.351809
103.18470001 13.34980011 28.08359909 0.849273 -0.527558 -0.020448
103.20149994 13.34390259 28.08169937 0.958582 -0.267782 0.097022
103.21839905 13.35469818 28.08670044 0.752419 -0.640838 -0.152293
103.22879791 13.36250305 28.08370018 0.646232 -0.762186 -0.038180
103.24169922 13.38140106 28.08860016 0.843089 -0.467013 0.266644
103.25199890 13.38559723 28.08460045 0.760970 -0.627307 0.165560
103.29309845 13.39749908 28.08480072 0.236207 -0.970530 0.047731
103.32630157 13.39379883 28.07999992 0.030204 -0.998801 -0.038536
103.34940338 13.39230347 28.08609962 -0.123198 -0.890707 -0.437565
103.24199677 13.42500305 28.08429909 0.540108 -0.795203 0.275565
103.38179779 13.42199707 28.08110046 -0.479002 -0.763460 0.433227
103.34600067 13.43720245 28.08370018 0.308204 -0.714841 0.627704
103.33509827 13.14929962 28.09460068 0.264339 0.909852 -0.319836
103.33550262 13.17099762 28.09539986 0.076664 0.966469 -0.245073
103.30549622 13.18270111 28.09810066 0.170145 0.977403 -0.125435
103.39289856 13.18139648 28.09569931 -0.388693 0.918606 0.071283
103.25340271 13.19920349 28.09059906 0.591716 0.788451 -0.167981
103.26270294 13.19210052 28.09269905 0.300302 0.939302 -0.165921
103.28189850 13.19730377 28.09880066 0.217361 0.972537 -0.083218
103.37930298 13.19889832 28.09840012 -0.361097 0.930973 -0.053836
103.23349762 13.20439911 28.09840012 0.727663 0.685763 -0.015363
103.24400330 13.20279694 28.09650040 0.591658 0.799104 -0.106645
103.31710052 13.20549774 28.09589958 0.128033 0.987850 -0.088096
103.39250183 13.20610046 28.09740067 -0.476151 0.879354 0.003979
103.40740204 13.21440125 28.09339905 -0.792090 0.596659 0.128807
103.21949768 13.22270203 28.09309959 0.817921 0.572967 -0.052088
103.19080353 13.23049927 28.09189987 0.696949 0.711560 -0.089128
103.20809937 13.23690033 28.09889984 0.875021 0.472256 -0.106364
103.23380280 13.23190308 28.09510040 0.834309 0.551215 -0.009527
103.42330170 13.23040009 28.09429932 -0.903354 0.428733 0.011800
103.22380066 13.24210358 28.09490013 0.867479 0.491898 0.074275
103.19360352 13.25599670 28.09160042 0.976344 0.212562 0.039630
103.42350006 13.25430298 28.09609985 -0.827037 0.531774 0.182280
103.43019867 13.25499725 28.09609985 -0.789875 0.476509 0.386053
103.22360229 13.26090240 28.09569931 0.885697 0.457448 0.079254
103.19999695 13.30159760 28.09519958 0.986701 0.081536 0.140620
103.19100189 13.32319641 28.09889984 0.977922 -0.167325 0.125184
103.20390320 13.35510254 28.09560013 0.830139 -0.557515 -0.006816
103.19550323 13.36640167 28.09449959 0.886953 -0.438445 0.145190
103.23359680 13.38110352 28.09760094 0.739959 -0.644580 0.192297
103.26979828 13.39119720 28.09970093 0.479602 -0.877255 -0.020151
103.39109802 13.39260101 28.09849930 -0.695507 -0.686171 0.213164
103.22290039 13.40519714 28.09819984 0.965503 -0.201417 0.165032
103.24320221 13.40499878 28.09140015 0.278697 -0.959956 -0.028489
103.25199890 13.40239716 28.09749985 0.345402 -0.935628 -0.072786
103.32830048 13.40360260 28.09889984 0.195554 -0.902445 0.383865
103.34829712 13.41870117 28.09790039 0.051544 -0.923832 0.379313
103.32260132 13.42009735 28.09469986 0.255192 -0.884965 0.389504
103.34349823 13.45240021 28.09449959 0.387561 -0.779986 0.491343
103.36430359 13.16110229 28.10869980 -0.480963 0.868605 -0.119164
103.32170105 13.17769623 28.10219955 0.124429 0.979418 -0.158924
103.27030182 13.18769836 28.10880089 0.323368 0.944131 -0.063635
103.32050323 13.18890381 28.10810089 0.066688 0.978491 -0.195213
103.36450195 13.18119812 28.10149956 -0.357931 0.933678 0.011464
103.37870026 13.18689728 28.10950089 -0.423693 0.904858 -0.041434
103.30100250 13.19539642 28.10790062 0.085091 0.992733 -0.085091
103.40029907 13.19580078 28.10359955 -0.466784 0.882920 0.050648
103.23180389 13.20339966 28.10639954 0.676373 0.724364 -0.133475
103.37069702 13.21240234 28.10020065 -0.224738 0.954127 -0.197823
103.21980286 13.24089813 28.10989952 0.839008 0.540067 -0.066275
103.21250153 13.25050354 28.10880089 0.893617 0.448783 -0.006580
103.20140076 13.26229858 28.10260010 0.965231 0.255319 0.056046
103.19380188 13.28350067 28.10029984 0.930501 0.365783 0.019252
103.17140198 13.31670380 28.10379982 0.991400 0.044087 0.123218
103.23049927 13.31890106 28.10820007 0.898901 -0.429429 0.086990
103.19640350 13.33149719 28.10079956 0.949911 -0.312519 0.001235
103.43399811 13.33460236 28.10230064 0.000000 0.000000 0.000000
103.18039703 13.34729767 28.10260010 0.869502 -0.478585 0.122161
103.20800018 13.34130096 28.10580063 0.899781 -0.419711 -0.119316
103.24420166 13.34770203 28.10000038 0.816018 -0.572217 -0.081745
103.42939758 13.34369659 28.10820007 0.000000 0.000000 0.000000
103.21150208 13.35060120 28.10569954 0.854781 -0.511735 -0.086470
103.22239685 13.35030365 28.10079956 0.782424 -0.618761 -0.070346
103.19010162 13.36180115 28.10050011 0.905919 -0.362077 0.219573
103.39929962 13.37779999 28.10569954 -0.934313 -0.323363 0.149985
103.25789642 13.38379669 28.10969925 0.558441 -0.801509 0.213838
103.40750122 13.39479828 28.10250092 -0.940335 -0.340228 -0.003766
103.28019714 13.41220093 28.10449982 0.453344 -0.888775 0.067519
103.38880157 13.41860199 28.10919952 -0.799412 -0.598498 -0.052351
103.31719971 13.43219757 28.10860062 0.274810 -0.931534 0.238168
103.34349823 13.44309998 28.10759926 0.367628 -0.927696 0.065032
103.37049866 13.44719696 28.10280037 -0.411101 -0.898120 0.156132
103.33809662 13.16699982 28.11650085 0.316332 0.839915 -0.440995
103.25509644 13.17810059 28.11680031 0.290361 0.953674 0.078720
103.29060364 13.17819977 28.11199951 0.097047 0.993898 -0.052428
103.34549713 13.17759705 28.11240005 -0.209036 0.968233 -0.137220
103.28669739 13.18049622 28.11599922 0.193773 0.980607 -0.029359
103.30509949 13.18150330 28.11610031 0.092452 0.995717 -0.001063
103.34700012 13.18450165 28.11230087 -0.185243 0.962998 -0.195753
103.40260315 13.18669891 28.11370087 -0.210541 0.977426 -0.017643
103.23570251 13.19180298 28.11350060 0.653246 0.748048 -0.117021
103.33969879 13.19409943 28.11820030 -0.089635 0.994837 -0.047584
103.42600250 13.19090271 28.11079979 -0.816879 0.548109 -0.179683
103.24680328 13.20600128 28.11350060 0.607347 0.772570 -0.185111
103.26360321 13.20010376 28.11660004 0.386608 0.904002 -0.182525
103.33190155 13.20449829 28.11400032 -0.133741 0.984384 -0.114463
103.39089966 13.20300293 28.11639977 -0.410915 0.897714 -0.158926
103.24919891 13.21710205 28.11739922 0.610518 0.778522 -0.145504
103.27970123 13.21389771 28.11160088 0.273210 0.959412 -0.069891
103.20580292 13.22380066 28.11700058 0.773274 0.617118 -0.145646
103.23909760 13.22360229 28.11219978 0.691358 0.720105 -0.058931
103.39219666 13.22519684 28.11820030 -0.632713 0.733695 -0.247721
103.42299652 13.23650360 28.11429977 -0.752240 0.648380 0.117213
103.19450378 13.25450134 28.11560059 0.924178 0.374232 -0.076456
103.44660187 13.25150299 28.11030006 -0.684194 0.719814 0.117248
103.20349884 13.27210236 28.11350060 0.937680 0.321607 -0.131628
103.19100189 13.28790283 28.11730003 0.990185 0.139227 -0.012252
103.18720245 13.30319977 28.11210060 0.991552 0.124929 0.034890
103.19519806 13.30000305 28.11219978 0.993766 0.050303 -0.099488
103.20190430 13.32569885 28.11644936 0.941109 -0.256414 -0.220377
103.20839691 13.36299896 28.11759949 0.782580 -0.622475 -0.009661
103.23580170 13.37570190 28.11260033 0.873081 -0.456350 0.171681
103.24130249 13.38400269 28.11660004 0.727543 -0.656487 0.199263
103.21170044 13.39119720 28.11230087 0.786490 -0.607141 0.113196
103.22129822 13.39849854 28.11730003 0.689576 -0.710608 0.139718
103.23850250 13.39759827 28.11240005 0.302287 -0.939687 -0.160034
103.28450012 13.40550232 28.11059952 0.432815 -0.892592 0.126297
103.22100067 13.41010284 28.11020088 0.570300 -0.765192 -0.298728
103.29689789 13.41940308 28.11459923 0.113796 -0.993233 0.023201
103.29810333 13.42489624 28.11549950 0.059528 -0.996817 -0.053034
103.33860016 13.42469788 28.11879921 0.268434 -0.963205 0.013361
103.38549805 13.42369843 28.11910057 -0.629284 -0.762083 0.152417
103.27670288 13.43620300 28.11730003 0.136300 0.166311 0.976608
103.26679993 13.44049835 28.11319923 -0.405510 -0.424743 0.809416
103.29540253 13.18740082 28.12800026 0.005275 0.997016 -0.077018
103.24780273 13.19129944 28.12059975 0.437776 0.896137 -0.072734
103.32910156 13.19219971 28.12910080 0.062902 0.983890 -0.167344
103.34649658 13.19270325 28.12919998 -0.225507 0.947129 -0.228240
103.22190094 13.20210266 28.12229919 0.712169 0.700797 0.041223
103.24459839 13.20950317 28.12339973 0.586929 0.792127 -0.167478
103.39920044 13.20120239 28.12050056 -0.553967 0.813592 -0.176605
103.22699738 13.23149872 28.12709999 0.757157 0.632735 -0.162356
103.21810150 13.24720001 28.12989998 0.836802 0.547504 -0.001352
103.19180298 13.26249695 28.12750053 0.970530 0.236207 0.047731
103.20159912 13.26390076 28.12360001 0.953322 0.278217 0.117352
103.19889832 13.27179718 28.12849998 0.976151 0.189773 0.105429
103.41919708 13.28530121 28.12870026 -0.389624 0.715133 0.580326
103.18910217 13.30580139 28.12910080 0.992363 -0.023337 -0.121128
103.20210266 13.30580139 28.12709999 0.973235 -0.109253 -0.202182
103.23180389 13.30580139 28.12929916 0.860426 -0.412575 -0.299079
103.19760132 13.32779694 28.12989998 0.965007 -0.262086 0.008454
103.18550110 13.33190155 28.12179947 0.972719 -0.219326 -0.075587
103.19390106 13.33730316 28.12380028 0.934881 -0.340323 -0.100886
103.21559906 13.34049988 28.12490082 0.864773 -0.464278 -0.191348
103.19660187 13.37580109 28.12639999 0.831762 -0.554045 -0.034715
103.20639801 13.37719727 28.12240028 0.840318 -0.502380 -0.203668
103.23380280 13.37329865 28.12260056 0.909704 -0.415158 -0.009110
103.22779846 13.39209747 28.12639999 0.746856 -0.655163 -0.113877
103.25630188 13.39379883 28.12960052 0.354867 -0.932680 0.064641
103.26190186 13.40920258 28.12750053 0.404212 -0.899048 -0.168302
103.28359985 13.40869904 28.12660027 0.414708 -0.908599 0.049658
103.25370026 13.42400360 28.12430000 0.379975 -0.924989 -0.003838
103.31439972 13.42359924 28.12560081 0.225336 -0.974070 0.020268
103.34510040 13.17639923 28.13139915 -0.088162 0.981859 -0.167870
103.36389923 13.17659760 28.13450050 -0.172732 0.961234 -0.214926
103.26419830 13.18060303 28.13380051 0.374986 0.926359 -0.035277
103.27770233 13.19280243 28.13080025 0.273827 0.942569 -0.191266
103.28240204 13.19110107 28.13590050 0.284479 0.953072 -0.103566
103.31069946 13.19129944 28.13699913 0.115114 0.989517 -0.087208
103.37629700 13.19989777 28.13540077 -0.298172 0.949684 -0.095888
103.33200073 13.20249939 28.13100052 0.084616 0.966141 -0.243745
103.23410034 13.21839905 28.13330078 0.709490 0.703826 -0.035404
103.26260376 13.21279907 28.13450050 0.441428 0.840741 -0.313523
103.34770203 13.21130371 28.13209915 -0.328043 0.942308 0.066654
103.41494751 13.21379852 28.13145065 -0.696949 0.711560 -0.089128
103.20320129 13.23899841 28.13080025 0.804515 0.588634 -0.079156
103.41575623 13.23395157 28.13375092 -0.851221 0.521355 -0.060103
103.20569611 13.27970123 28.13540077 0.999855 -0.013011 -0.011009
103.20130157 13.29229736 28.13030052 0.989873 0.035231 -0.137514
103.17620087 13.32980347 28.13969994 0.985788 -0.012536 -0.167527
103.20569611 13.32250214 28.13800049 0.941708 -0.304869 -0.142272
103.22630310 13.33670044 28.12999916 0.856341 -0.497466 -0.138590
103.22049713 13.35320282 28.13380051 0.915682 -0.398528 -0.051982
103.22920227 13.36000061 28.13780022 0.903512 -0.384749 -0.188772
103.24530029 13.37380219 28.13769913 0.763691 -0.624010 -0.165492
103.23570251 13.39260101 28.13850021 0.668456 -0.736335 -0.104769
103.27610016 13.39810181 28.13470078 0.528597 -0.843750 -0.093113
103.24289703 13.40180206 28.13240051 0.435412 -0.899132 -0.044485
103.31700134 13.41950226 28.13570023 0.293856 -0.953427 0.068010
103.38310242 13.41999817 28.13010025 -0.834588 -0.443130 -0.327259
103.35299683 13.42819977 28.13780022 0.110511 -0.958191 -0.263925
103.37180328 13.42469788 28.13100052 -0.230022 -0.921516 0.312887
103.28639984 13.43789673 28.13430023 0.129934 -0.985830 -0.106093
103.34149933 13.17079926 28.14839935 -0.414855 0.907239 0.069369
103.27799988 13.18119812 28.14290047 0.292988 0.951885 -0.089850
103.28859711 13.18689728 28.14690018 0.215226 0.976245 -0.024971
103.32369995 13.18669891 28.14615059 -0.020021 0.997865 0.062169
103.37200165 13.19740295 28.14940071 -0.295196 0.944896 -0.141532
103.38200378 13.19290161 28.14150047 -0.365561 0.916021 -0.165138
103.36409760 13.20059967 28.14629936 -0.247010 0.963724 -0.101108
103.40019989 13.20339966 28.14349937 -0.398955 0.805921 -0.437408
103.24210358 13.21890259 28.14329910 0.551350 0.830586 -0.078357
103.21910095 13.23259735 28.13999939 0.752485 0.658597 -0.004142
103.23850250 13.23200226 28.14310074 0.635957 0.766933 -0.085862
103.19670105 13.26589966 28.14749908 0.953147 0.292780 -0.076097
103.21779633 13.26270294 28.14369965 0.855428 0.494476 -0.154065
103.19270325 13.28710175 28.14730072 0.998905 -0.019668 -0.042441
103.23180389 13.28350067 28.14559937 0.979523 -0.086608 -0.181754
103.44090271 13.28279877 28.14889908 -0.916265 0.204409 0.344493
103.21450043 13.29380035 28.14240074 0.939241 -0.091666 -0.330793
103.20490265 13.30899811 28.14209938 0.970434 -0.162807 -0.178191
103.17819977 13.31919861 28.14290047 0.992979 -0.001085 -0.118289
103.20929718 13.32610321 28.14900017 0.892279 -0.342264 -0.294437
103.21510315 13.33570099 28.14489937 0.911044 -0.381136 -0.157272
103.24440002 13.34369659 28.14500046 0.967688 -0.214613 0.132366
103.21659851 13.35199738 28.14480019 0.913511 -0.391110 -0.111943
103.21330261 13.37010193 28.14459991 0.911212 -0.409578 0.044026
103.21669769 13.38690186 28.14369965 0.869958 -0.493110 -0.004009
103.22029877 13.38520050 28.14439964 0.869958 -0.493110 -0.004009
103.28790283 13.39270020 28.14279938 0.437780 -0.882832 -0.170167
103.36689758 13.44550323 28.14679909 -0.755073 -0.515940 -0.404562
103.28620148 13.17949677 28.15299988 0.380905 0.920407 0.088110
103.26660156 13.18609619 28.15880013 0.278945 0.959420 0.041279
103.33059692 13.18419647 28.15719986 -0.046083 0.992466 0.113521
103.39109802 13.18229675 28.15259933 -0.422414 0.858653 -0.290314
103.27230072 13.20500183 28.15259933 0.397609 0.915175 0.066044
103.28260040 13.20570374 28.15469933 0.313529 0.948266 0.049909
103.30120087 13.20809937 28.15780067 -0.012723 0.981985 -0.188532
103.36460114 13.20339966 28.15220070 -0.354054 0.933177 -0.061861
103.27829742 13.21600342 28.15360069 0.415916 0.909243 0.017057
103.30310059 13.21630096 28.15169907 0.180333 0.962213 -0.204026
103.23739624 13.22440338 28.15519905 0.722223 0.691490 -0.015366
103.36730194 13.22519684 28.14999962 -0.368689 0.928887 0.035175
103.43209839 13.22039795 28.15749931 -0.769084 0.617391 -0.165345
103.22380066 13.23829651 28.15800095 0.783829 0.618211 0.058537
103.25700378 13.23090363 28.15929985 0.397303 0.913387 0.088745
103.20989990 13.24710083 28.15080070 0.841995 0.522769 -0.133255
103.17600250 13.25759888 28.15749931 0.903200 0.419096 0.092671
103.20359802 13.25140381 28.15469933 0.876712 0.479813 -0.033981
103.20349884 13.26090240 28.15859985 0.957363 0.278109 -0.078178
103.42220306 13.26750183 28.15900040 -0.956285 0.264392 0.124962
103.43060303 13.26560211 28.15299988 -0.956285 0.264392 0.124962
103.18599701 13.27339935 28.15740013 0.999780 0.000997 0.020933
103.18260193 13.28070068 28.15629959 0.991706 0.114733 0.057935
103.21150208 13.29010010 28.15169907 0.983294 -0.162081 -0.082842
103.22589874 13.32250214 28.15710068 0.980677 -0.066181 0.184102
103.20259857 13.33489990 28.15089989 0.782078 -0.535779 -0.318269
103.20680237 13.34130096 28.15979958 0.770441 -0.608082 -0.191461
103.18430328 13.35050201 28.15159988 0.842472 -0.530657 0.092972
103.19819641 13.35469818 28.15760040 0.846051 -0.485836 -0.219459
103.22039795 13.35340118 28.15480042 0.878511 -0.373481 -0.297877
103.23490143 13.35669708 28.15279961 0.956051 -0.201907 0.212604
103.22409821 13.37000275 28.15660095 0.917887 -0.368556 0.147142
103.25139618 13.38860321 28.15559959 0.462115 -0.835542 0.297185
103.23549652 13.39859772 28.15139961 0.662254 -0.745937 0.070698
103.22889709 13.41819763 28.15419960 0.393973 -0.917490 0.054756
103.30120087 13.41079712 28.15270042 0.487328 -0.858346 -0.160480
103.33080292 13.42030334 28.15679932 0.104846 -0.959147 -0.262762
103.34149933 13.43879700 28.15069962 0.388953 -0.919947 0.049117
103.35980225 13.45290375 28.15360069 0.472079 -0.436142 0.766108
103.29979706 13.15630341 28.16629982 0.087017 0.967273 0.238350
103.30269623 13.16290283 28.16230011 0.137226 0.960579 0.241778
103.32980347 13.17070007 28.16440010 -0.272495 0.960641 -0.053997
103.35410309 13.17910004 28.16640091 -0.399813 0.865495 -0.301774
103.22969818 13.18990326 28.16449928 0.608822 0.761417 -0.222664
103.30850220 13.18550110 28.16010094 0.167134 0.985513 -0.028816
103.25080109 13.19969940 28.16060066 0.482386 0.869433 0.106723
103.35079956 13.19360352 28.16629982 -0.258049 0.949782 -0.176986
103.36180115 13.19110107 28.16939926 -0.408707 0.905292 -0.115777
103.22910309 13.20020294 28.16239929 0.702617 0.711065 -0.026753
103.34570313 13.20339966 28.16810036 -0.320049 0.944470 -0.074460
103.38729858 13.20130157 28.16040039 -0.476889 0.852985 -0.212118
103.40080261 13.20989990 28.16040039 -0.511049 0.831408 -0.218149
103.21320343 13.21019745 28.16419983 0.852898 0.500582 0.148266
103.24520111 13.21040344 28.16139984 0.409409 0.877304 0.250444
103.21350098 13.22100067 28.16110039 0.773664 0.623352 0.113471
103.38580322 13.23719788 28.16699982 -0.539368 0.812893 -0.219742
103.41790009 13.23509979 28.16130066 -0.813424 0.516782 -0.266978
103.40789795 13.24900055 28.16710091 -0.817540 0.520815 -0.245726
103.19689941 13.25440216 28.16469955 0.925561 0.378228 -0.016781
103.43659973 13.25420380 28.16819954 -0.832864 -0.069524 -0.549094
103.19499969 13.29460144 28.16119957 0.997360 -0.070862 -0.015865
103.20310211 13.30809784 28.16209984 0.963617 -0.253315 0.085287
103.22380066 13.30719757 28.16830063 0.983931 0.057878 0.168910
103.44770050 13.30750275 28.16169930 -0.950480 -0.212875 -0.226434
103.17780304 13.32530212 28.16780090 0.993514 -0.101928 -0.050404
103.24340057 13.32669830 28.16020012 0.984742 -0.099554 0.142734
103.18979645 13.33999634 28.16069984 0.704091 -0.688818 -0.172586
103.19110107 13.33249664 28.16480064 0.897438 -0.327824 -0.295190
103.22640228 13.33840179 28.16399956 0.970239 -0.232311 0.068327
103.20369720 13.34420013 28.16979980 0.848374 -0.495259 -0.187031
103.20369720 13.38330078 28.16839981 0.756251 -0.421598 -0.500340
103.35900116 13.39160156 28.16119957 -0.632783 -0.682091 -0.366521
103.21130371 13.40119934 28.16720009 0.557076 -0.658056 0.506585
103.29319763 13.41780090 28.16360092 0.344358 -0.927969 0.142445
103.22779846 13.17810059 28.17060089 0.318664 0.697178 0.642180
103.33139801 13.17549896 28.17729950 -0.239586 0.919608 -0.311318
103.25540161 13.18869781 28.17670059 0.431099 0.878493 0.205920
103.30349731 13.18489838 28.17354965 0.238217 0.956859 0.166352
103.33000183 13.18520355 28.17320061 -0.191166 0.955832 -0.223250
103.27189636 13.19450378 28.17679977 0.408108 0.908280 0.092065
103.29389954 13.19899750 28.17580032 0.216310 0.976318 -0.003508
103.24620056 13.20880127 28.17140007 0.474401 0.878674 0.053628
103.32199860 13.20149994 28.17799950 0.261667 0.960304 -0.096675
103.39399719 13.20939636 28.17440033 -0.524797 0.831555 -0.181950
103.23090363 13.21219635 28.17729950 0.734380 0.678214 -0.026679
103.25579834 13.21610260 28.17140007 0.450192 0.890806 0.061576
103.27729797 13.21209717 28.17560005 0.447273 0.856383 0.257983
103.31400299 13.21410370 28.17079926 0.309849 0.899897 -0.306884
103.37709808 13.21170044 28.17620087 -0.433291 0.862022 -0.263015
103.23590088 13.22119904 28.17320061 0.790955 0.604505 -0.094681
103.43260193 13.22329712 28.17650032 -0.583674 0.546455 -0.600593
103.22119904 13.23680115 28.17399979 0.796064 0.602389 0.058388
103.42230225 13.23210144 28.17130089 -0.811014 0.505506 -0.294485
103.22239685 13.25540161 28.17980003 0.895526 0.415421 -0.159556
103.21009827 13.26170349 28.17370033 0.975341 0.157313 -0.154796
103.22869873 13.26409912 28.17079926 0.958830 0.274499 -0.072774
103.18849945 13.27880096 28.17530060 0.998195 0.059330 0.009368
103.21060181 13.28700256 28.17939949 0.999681 0.025067 0.003008
103.21409607 13.29630280 28.17329979 0.982396 -0.146934 0.115362
103.43240356 13.29799652 28.17670059 -0.791825 0.306257 -0.528412
103.19069672 13.30519867 28.17910004 0.987572 -0.137391 -0.076328
103.21430206 13.32019806 28.17410088 0.978248 -0.147918 0.145432
103.22059631 13.32900238 28.17600060 0.949057 -0.258588 0.180064
103.41970062 13.32180023 28.17239952 -0.808255 -0.490670 -0.325525
103.43879700 13.32330322 28.17250061 -0.808255 -0.490670 -0.325525
103.20189667 13.33959961 28.17580032 0.969690 -0.242118 0.032850
103.22820282 13.37650299 28.17560005 0.833246 -0.552283 -0.026168
103.24960327 13.40650177 28.17160034 0.372698 -0.908002 0.191386
103.29530334 13.42759705 28.17650032 0.093041 -0.995648 0.005347
103.33029938 13.16419983 28.18339920 -0.274854 0.960108 -0.051457
103.28579712 13.17259979 28.18709946 0.061565 0.996919 -0.048604
103.25939941 13.18430328 28.18580055 0.341651 0.893665 0.290926
103.29309845 13.18550110 28.18000031 0.233129 0.964717 0.122361
103.26509857 13.19960022 28.18070030 0.368856 0.922827 0.111068
103.27320099 13.19069672 28.18779945 0.412939 0.867021 0.278848
103.35530090 13.19200134 28.18630028 -0.364626 0.927038 -0.087456
103.23460388 13.21589661 28.18630028 0.613685 0.773515 -0.158322
103.25499725 13.21350098 28.18840027 0.606288 0.794973 0.020811
103.39669800 13.22200012 28.18630028 -0.700361 0.711819 -0.052993
103.18450165 13.27400208 28.18140030 0.994639 -0.020699 -0.101316
103.19499969 13.28910065 28.18530083 0.977904 0.179262 -0.107557
103.19830322 13.30069733 28.18619919 0.992861 -0.076025 -0.091911
103.21779633 13.30349731 28.18129921 0.932123 -0.032320 0.360697
103.18330383 13.31120300 28.18700027 0.968538 -0.211108 -0.131783
103.22170258 13.31790161 28.18720055 0.969692 -0.107744 0.219290
103.20120239 13.32029724 28.18799973 0.984900 -0.125962 0.118764
103.21949768 13.34739685 28.18680000 0.988460 -0.097322 0.116082
103.36100006 13.38770294 28.18330002 -0.378668 -0.879534 -0.288149
103.25409698 13.40850067 28.18639946 0.785920 -0.604668 -0.129253
103.26300049 13.40000153 28.18659973 0.492567 -0.853488 0.170106
103.27480316 13.17870331 28.19090080 0.450156 0.887691 0.096763
103.32489777 13.18939972 28.19709969 -0.062133 0.992991 -0.100542
103.24780273 13.20069885 28.19149971 0.640135 0.767314 0.038154
103.25050354 13.20950317 28.19449997 0.668824 0.738766 -0.083057
103.34079742 13.20549774 28.19809914 -0.021354 0.999585 0.019321
103.39119720 13.20079803 28.19540024 -0.666629 0.743713 0.049962
103.32489777 13.21179962 28.19090080 0.041410 0.992727 -0.113039
103.20760345 13.22840118 28.19400024 0.776196 0.629157 -0.041001
103.19480133 13.23919678 28.19479942 0.929702 0.351522 -0.109936
103.22530365 13.23970032 28.19000053 0.838010 0.541244 -0.069245
103.40640259 13.23660278 28.19619942 -0.622085 0.782802 -0.015240
103.42189789 13.24749756 28.19020081 -0.443753 -0.370589 -0.815933
103.20179749 13.25789642 28.19359970 0.942749 0.211187 -0.258117
103.21769714 13.27400208 28.19059944 0.978679 0.196701 -0.059131
103.18879700 13.30069733 28.19809914 0.961127 0.201718 0.188534
103.43530273 13.30829620 28.19459915 -0.808255 -0.490670 -0.325525
103.42430115 13.32379913 28.19339943 -0.808255 -0.490670 -0.325525
103.19450378 13.33640289 28.19680023 0.964052 -0.229660 -0.133644
103.31379700 13.40930176 28.19280052 -0.505392 -0.851110 -0.142096
103.27259827 13.42050171 28.19540024 0.165447 -0.965326 -0.201924
103.24590302 13.43440247 28.19809914 0.590138 -0.603665 0.536028
103.28420258 13.43379974 28.19230080 0.050606 -0.998693 -0.007229
103.24479675 13.16449738 28.20190048 0.276948 0.927419 0.251383
103.24109650 13.17769623 28.20870018 0.790634 0.559838 0.247950
103.26650238 13.18070221 28.20089912 0.188588 0.956317 0.223364
