99.01370239 11.98470306 27.87910080 -0.393280 -0.898303 -0.195914
99.05509949 11.98500061 27.87840080 -0.175335 -0.984396 0.014898
99.11689758 11.98280334 27.87479973 0.165305 -0.986131 0.014820
99.16369629 11.98760223 27.87010002 0.294050 -0.908482 0.296976
99.18280029 11.98919678 27.87619972 -0.505085 -0.857070 0.101589
98.99289703 11.99510193 27.87389946 -0.528165 -0.835891 0.149425
99.27610016 11.99169922 27.87369919 0.727583 -0.686007 0.004158
98.97699738 12.00520325 27.87969971 -0.528165 -0.835891 0.149425
98.98259735 12.00749969 27.87070084 -0.480050 -0.870357 0.109685
98.97560120 12.01850128 27.87450027 -0.604427 -0.699950 0.380443
98.99060059 12.01730347 27.87459946 -0.780402 -0.625153 0.012475
98.95189667 12.02590179 27.87829971 -0.930054 -0.286496 -0.230044
99.31060028 12.03620148 27.87350082 0.844909 -0.534701 0.014966
99.32779694 12.03890228 27.87260056 0.285936 0.820310 0.495311
99.30629730 12.04660034 27.87140083 0.883991 -0.455389 0.105741
99.30220032 12.06420135 27.87809944 0.956210 -0.292617 -0.006122
99.32959747 12.06030273 27.87339973 0.944790 -0.318424 -0.077313
98.95549774 12.07800293 27.87680054 -0.618174 0.260866 0.741492
98.98059845 12.07029724 27.87800026 -0.254364 0.639860 0.725175
99.30400085 12.12460327 27.87750053 0.895286 0.335174 0.293463
99.31510162 12.12210083 27.87159920 0.804341 0.492161 0.332886
98.98889923 12.13719940 27.87339973 -0.960310 -0.134574 -0.244324
99.29949951 12.14659882 27.87529945 0.921454 0.283192 0.265942
98.99140167 12.17790222 27.87500000 -0.764672 0.530887 0.365289
99.26770020 12.17970276 27.87269974 0.786191 0.556163 0.269416
99.27980042 12.17199707 27.87389946 0.681407 0.684583 0.258903
99.28659821 12.17990112 27.87380028 0.558114 0.541252 0.628932
99.25319672 12.18939972 27.87249947 0.675790 0.672564 0.301605
99.31340027 12.18630219 27.87400055 0.750631 0.626816 0.208939
99.01670074 12.19770050 27.87789917 -0.866091 0.496299 -0.059778
99.27519989 12.19039917 27.87369919 0.573998 0.709640 0.408580
99.00479889 12.20899963 27.87579918 -0.935917 0.317470 0.152550
99.04900360 12.21589661 27.87400055 -0.405836 0.879063 0.250091
99.20909882 12.22889709 27.87380028 0.392970 0.912300 0.115253
99.22889709 12.22380066 27.87800026 0.374233 0.905961 -0.197953
99.01709747 12.23809814 27.87150002 -0.718839 0.686232 0.111161
99.18319702 12.23609924 27.87560081 0.510907 0.826964 -0.234741
99.05639648 12.24900055 27.87269974 -0.175018 0.948354 0.264562
99.07469940 12.24639893 27.87080002 -0.608971 0.787135 0.097844
99.08760071 12.24649811 27.87890053 -0.276230 0.899594 0.338271
99.16970062 12.24420166 27.87940025 0.344547 0.920210 -0.185743
99.19499969 12.24729919 27.87960052 0.384533 0.913092 -0.135635
99.20040131 12.25189972 27.87859917 0.224975 0.957144 0.182377
99.06549835 12.26080322 27.87859917 -0.567764 0.821356 0.054945
99.08709717 12.26029968 27.87570000 -0.618056 0.614688 0.490066
99.11039734 12.26100159 27.87689972 0.678651 0.730744 0.073798
99.11489868 12.27439880 27.87179947 0.362203 0.927723 0.090214
99.14929962 12.27989960 27.87989998 0.098020 0.994521 0.036345
99.17459869 11.95570374 27.88649940 0.027180 -0.999618 -0.005033
99.19645691 11.95479965 27.88459969 -0.026827 -0.996894 0.074043
99.25689697 11.95120239 27.88299942 0.402628 -0.731304 0.550532
99.18340302 11.96600342 27.88739967 -0.068227 -0.994323 -0.081649
99.21499634 11.96479797 27.88360023 -0.069751 -0.991379 -0.110916
99.11810303 11.97910309 27.88890076 0.058148 -0.968719 -0.241252
99.18759918 11.97229767 27.88839912 -0.120152 -0.766894 -0.630426
99.22350311 11.97380066 27.88459969 -0.069751 -0.991379 -0.110916
99.23480225 11.97270203 27.88269997 0.112695 -0.982752 0.146625
99.25029755 11.97070313 27.88179970 0.545176 -0.803009 -0.240747
99.02670288 11.98480225 27.88820076 -0.161608 -0.975909 0.146574
99.04609680 11.98049927 27.88839912 0.136153 -0.989682 -0.044622
99.19730377 11.98320007 27.88430023 -0.082878 -0.740086 -0.667386
99.26309967 11.98239899 27.88069916 0.676566 -0.734023 -0.058894
99.27610016 11.98239899 27.88380051 0.564446 -0.814983 0.131164
99.28410339 11.99579620 27.88470078 0.850029 -0.525947 -0.028838
99.00160217 12.00559998 27.88680077 -0.547239 -0.833004 0.081443
98.97109985 12.01450348 27.88059998 -0.811835 -0.583807 0.009616
99.29100037 12.01670074 27.88059998 0.778252 -0.517223 0.356095
99.29329681 12.02429962 27.88750076 0.905004 -0.384159 0.182727
98.96769714 12.03839874 27.88229942 -0.931185 -0.346646 -0.112830
99.30619812 12.03009796 27.88949966 0.512662 -0.850585 -0.116974
99.30329895 12.04949951 27.88330078 0.846591 -0.490449 0.206743
98.96279907 12.07209778 27.88089943 -0.838818 0.051813 0.541941
99.32180023 12.07440186 27.88520050 0.644570 -0.384104 -0.661055
99.33180237 12.07369995 27.88920021 0.639608 -0.322233 -0.697902
99.32339478 12.08489990 27.88404846 0.705922 -0.108034 -0.700002
98.96499634 12.09839630 27.88059998 -0.792409 0.582520 -0.180992
99.33010101 12.09870148 27.88899994 0.905034 0.188489 -0.381294
98.96489716 12.10790253 27.88649940 -0.881213 0.321953 -0.346137
99.30570221 12.10330200 27.88680077 0.684763 0.722887 -0.092377
99.32990265 12.10079956 27.88190079 0.951502 0.016169 -0.307217
98.97309875 12.11540222 27.88450050 -0.837609 0.476650 -0.266863
99.29260254 12.12580109 27.88339996 0.782471 0.252461 0.569212
98.98850250 12.13590240 27.88439941 -0.990852 0.041995 -0.128255
99.27629852 12.15689850 27.88599968 0.739893 0.556961 0.377296
99.01020050 12.16519928 27.88419914 -0.806450 0.570051 0.157101
99.29250336 12.16130066 27.88509941 0.862574 0.499533 0.080207
99.30680084 12.16680145 27.88310051 0.638937 0.724551 0.258429
99.29740143 12.17030334 27.88199997 0.812103 0.530574 0.242857
99.01010132 12.18759918 27.88299942 -0.917835 0.362340 0.162137
99.01570129 12.20310211 27.88689995 -0.794828 0.604296 0.055453
99.25129700 12.20739746 27.88730049 0.787410 0.064308 -0.613065
98.99420166 12.21070099 27.88369942 -0.988845 0.019168 -0.147707
99.02069855 12.21569824 27.88380051 -0.856766 0.503727 0.110504
99.22989655 12.21869659 27.88909912 0.735570 0.660049 0.152551
99.02870178 12.22920227 27.88969994 -0.829815 0.529701 -0.175567
99.24710083 12.22604752 27.88610077 0.352044 0.921486 -0.164100
99.05349731 12.23310089 27.88479996 -0.574202 0.727977 -0.374622
99.08989716 12.23729706 27.88199997 -0.006025 0.965190 0.261481
99.11869812 12.23680115 27.88920021 -0.259549 0.846220 0.465344
99.19309998 12.23909760 27.88759995 0.460335 0.858789 -0.224885
99.25330353 12.23580170 27.88010025 0.318651 0.945548 0.066331
99.02120209 12.24089813 27.88249969 -0.983767 0.104759 0.145699
99.17320251 12.24060059 27.88450050 0.377718 0.914107 -0.147437
99.19850159 12.24369812 27.88360023 0.253699 0.944858 -0.207073
99.06919861 12.25489807 27.88369942 -0.251179 0.734581 -0.630318
99.10379791 12.25450134 27.88689995 -0.415126 0.806211 0.421538
99.12779999 12.25789642 27.88299942 -0.273877 0.955293 0.111385
99.15229797 12.26039886 27.88019943 0.276908 0.958330 -0.070184
99.10220337 12.27950287 27.88459969 -0.128229 0.900423 0.415688
99.14080048 12.27089691 27.88199997 0.313248 0.939743 -0.136961
99.09839630 12.28540039 27.88059998 0.014744 0.877954 0.478518
99.13909912 11.94989777 27.89730072 -0.107721 -0.976914 -0.184487
99.11789703 11.95529938 27.89909935 -0.301036 -0.716369 0.629439
99.13410187 11.95960236 27.89119911 -0.458334 -0.816754 -0.350490
99.15260315 11.95480347 27.89629936 -0.115362 -0.982396 -0.146934
99.16709900 11.95809937 27.89039993 0.028165 -0.990265 0.136316
99.07779694 11.96420288 27.89879990 -0.059574 -0.998131 0.013587
99.09300232 11.96080017 27.89789963 -0.257761 -0.872769 0.414528
99.13760376 11.96910095 27.89909935 -0.060373 -0.983717 -0.169280
99.18240356 11.96199799 27.89839935 0.087541 -0.992505 0.085267
99.19830322 11.96859741 27.89949989 0.107448 -0.993617 -0.034339
99.20970154 11.96749878 27.89360046 0.070579 -0.972003 -0.224118
99.23400116 11.96289825 27.89579964 0.238069 -0.904079 0.354913
99.03230286 11.97419739 27.89640045 -0.147995 -0.889409 -0.432491
99.09279633 11.97239685 27.89080048 -0.090073 -0.951640 -0.293716
99.16660309 11.97570038 27.89920044 -0.112002 -0.880424 -0.460770
99.25569916 11.97910309 27.89870071 0.435519 -0.841380 0.320005
99.00279999 11.98149872 27.89310074 -0.512580 -0.810410 -0.283722
99.03829956 11.98519897 27.89730072 -0.497434 -0.864554 0.071462
99.06569672 11.98139954 27.89949989 -0.202643 -0.960236 -0.192047
99.14540100 11.98470306 27.89599991 0.032588 -0.926810 -0.374113
99.29380035 11.98429871 27.89089966 0.800640 -0.590636 -0.100627
98.99780273 11.99490356 27.89489937 -0.530202 -0.810074 -0.250330
99.01219940 11.99829865 27.89800072 -0.317525 -0.816719 0.481817
99.27539825 11.99279785 27.89069939 0.713929 -0.699902 0.021039
99.30269623 11.99829865 27.89179993 0.844448 -0.499469 0.193488
99.03389740 12.01450348 27.89900017 -0.570273 -0.680649 0.459898
99.29640198 12.01560211 27.89259911 0.890887 -0.353669 0.285024
98.96569824 12.02670288 27.89739990 -0.905451 -0.399755 0.142669
99.33540344 12.02510071 27.89380074 0.085757 0.943325 -0.320599
99.28309631 12.03099823 27.89839935 0.771720 0.148928 0.618279
99.33370209 12.03710175 27.89559937 0.001352 0.842099 -0.539322
98.96119690 12.04859924 27.89109993 -0.990424 0.136029 -0.023608
98.97519684 12.04699707 27.89719963 -0.857527 0.435642 -0.273614
99.30139923 12.04139709 27.89539909 0.814513 -0.551572 0.179827
99.31079865 12.04149628 27.89940071 0.615060 -0.786306 -0.058509
99.32689667 12.05889893 27.89839935 0.584096 -0.570552 -0.577324
98.95449829 12.06099701 27.89299965 -0.985528 -0.158577 0.059907
98.97080231 12.06320190 27.89900017 -0.816019 0.134282 0.562212
99.27149963 12.06030273 27.89200020 0.600938 0.380320 0.703015
99.34259796 12.06410217 27.89640045 0.924105 0.377862 0.057011
99.32440186 12.08329773 27.89410019 0.890644 -0.073185 -0.448774
98.95590210 12.09030151 27.89170074 -0.888288 0.129750 0.440579
99.27709961 12.11849976 27.89640045 0.878325 0.459939 0.130388
99.30290222 12.11710358 27.89660072 0.166681 0.888481 -0.427573
99.28910065 12.13320160 27.89839935 0.975530 -0.067320 -0.209305
98.98359680 12.14360046 27.89329910 -0.905044 0.394799 0.158205
99.28679657 12.14240265 27.89319992 0.932203 0.103878 0.346709
99.31479645 12.14489746 27.89940071 -0.648742 0.152734 0.745524
99.31199646 12.15489960 27.89830017 0.811518 0.577176 -0.091133
98.98809814 12.16079712 27.89809990 -0.801983 0.596986 -0.020777
98.99659729 12.16970062 27.89310074 -0.766396 0.620705 0.165420
99.00540161 12.16339874 27.89419937 -0.723014 0.582018 0.372164
99.26249695 12.17669678 27.89669991 0.784508 0.606548 -0.129021
99.00920105 12.18720245 27.89699936 -0.917857 0.336500 0.210491
99.26529694 12.18910217 27.89360046 0.811984 0.550935 -0.192751
99.24680328 12.19400024 27.89349937 0.622943 0.747844 -0.229505
99.27380371 12.19809723 27.89660072 0.756210 0.527550 -0.387088
99.03179932 12.20749664 27.89089966 -0.796953 0.596626 -0.094357
99.26090240 12.20899963 27.89940071 0.509585 -0.020383 -0.860179
99.22640228 12.21299744 27.89509964 0.741563 0.661634 -0.111012
99.25640106 12.21430206 27.89730072 0.039241 -0.461423 -0.886312
99.23860168 12.22910309 27.89900017 0.341751 0.933399 0.109414
99.26809692 12.22289658 27.89379883 0.629504 0.770372 0.101249
99.21880341 12.23789978 27.89979935 0.537456 0.835882 -0.111547
99.22830200 12.23789978 27.89690018 0.219280 0.975500 0.017779
99.03890228 12.24289703 27.89159966 -0.221281 0.971387 0.086262
99.06520081 12.24069977 27.89179993 -0.113973 0.955011 -0.273796
99.10729980 12.24729919 27.88999939 0.029862 0.975892 -0.216201
99.12629700 12.24169922 27.89419937 -0.165951 0.695778 0.698823
99.18170166 12.24960327 27.89049911 0.403928 0.904967 -0.133704
99.04640198 12.25720215 27.89550018 -0.350140 0.936656 0.008848
99.08090210 12.25900269 27.89469910 -0.184576 0.911434 -0.367722
99.12030029 12.25099945 27.89809990 0.120801 0.949152 0.290719
99.14920044 12.25029755 27.89419937 0.174323 0.983931 0.038608
99.10859680 12.26010132 27.89990044 0.458549 0.824127 0.332487
99.12650299 12.26920319 27.89990044 0.003920 0.900351 0.435148
99.14029694 12.26249695 27.89909935 -0.178311 0.831619 0.525943
99.16410065 12.26420116 27.89453125 0.437058 0.878531 0.192777
99.17749786 12.26370239 27.89929962 0.302501 0.921840 -0.242288
99.20829773 11.95490265 27.90570068 0.047103 -0.989170 -0.139012
99.05030060 11.96450043 27.90259933 -0.122858 -0.777115 -0.617251
99.11889648 11.96309662 27.89999962 -0.176253 -0.884179 -0.432622
99.21440125 11.96009827 27.90769958 0.260066 -0.963626 -0.061562
99.26540375 11.96759796 27.90189934 0.500256 -0.829656 0.247819
98.99120331 11.97550201 27.90909958 -0.764121 -0.638472 -0.092045
99.01270294 11.97139740 27.90430069 -0.240585 -0.895921 -0.373423
99.03520203 11.97149658 27.90139961 0.045513 -0.998111 0.041279
99.10469818 11.97779846 27.90579987 0.085046 -0.948593 0.304858
99.11460114 11.97709656 27.90990067 -0.018519 -0.956808 0.290129
99.13330078 11.97940063 27.89999962 -0.340817 -0.905432 -0.253053
99.15170288 11.97109985 27.90620041 -0.009043 -0.999777 0.019091
99.27639771 11.97820282 27.90789986 0.706920 -0.698028 0.114115
99.00330353 11.98439789 27.90609932 -0.538343 -0.461675 -0.705013
99.05110168 11.98760223 27.90629959 -0.248976 -0.968503 -0.003574
98.97750092 11.99870300 27.90279961 -0.763276 -0.645634 -0.023809
99.25849915 11.99520111 27.90159988 0.522551 -0.805010 0.280891
98.98410034 12.00890350 27.90769958 -0.698565 -0.686174 0.202909
99.02400208 12.00589752 27.90800095 -0.235109 -0.828260 0.508635
99.27839661 12.00669861 27.90360069 0.921695 -0.382817 0.062691
99.28939819 12.01730347 27.90660095 0.893490 -0.423081 -0.150588
98.95919800 12.03679657 27.90019989 -0.980956 -0.116343 0.155532
98.98580170 12.03600311 27.90340042 -0.945539 -0.294556 0.138536
98.95290375 12.04479980 27.90710068 -0.999815 0.002996 0.018978
98.96050262 12.04959869 27.90410042 -0.989358 -0.145461 0.003331
99.27149963 12.04730225 27.90010071 0.222556 0.605415 0.764161
99.25610352 12.05660248 27.90690041 0.592714 0.401196 0.698378
99.26260376 12.05940247 27.90189934 0.592714 0.401196 0.698378
99.31529999 12.05870056 27.90430069 0.373862 -0.889225 -0.263640
99.34269714 12.05840302 27.90649986 0.491570 0.854712 0.166809
99.00029755 12.06900024 27.90220070 -0.097814 0.994621 -0.034070
99.31279755 12.06060028 27.90130043 0.457671 -0.621963 -0.635374
98.97100067 12.08709717 27.90679932 -0.934570 0.021794 0.355111
99.36129761 12.09989929 27.90819931 0.052883 0.750371 0.658898
99.30180359 12.10949707 27.90970039 0.357521 0.729735 0.582808
99.33200073 12.10489655 27.90489960 -0.064171 -0.600359 0.797152
98.96289825 12.11280060 27.90349960 -0.910626 0.413214 0.003886
98.97640228 12.11779785 27.90449905 -0.935445 0.345334 0.075418
99.27030182 12.11419678 27.90340042 -0.655615 0.735083 -0.172691
98.99050140 12.12920380 27.90550041 -0.823052 0.526815 0.212253
99.29139709 12.12409973 27.90349960 -0.039497 0.946661 -0.319801
99.31719971 12.12999725 27.90859985 -0.246742 0.018054 0.968913
99.32270050 12.12509918 27.90959930 -0.147647 -0.196435 0.969337
99.32080078 12.13929749 27.90550041 -0.517255 -0.004031 0.855822
99.33709717 12.13420105 27.90159988 -0.430007 -0.315131 0.846042
98.98770142 12.14649963 27.90929985 -0.833890 0.547904 -0.066541
98.97650146 12.15110016 27.90119934 -0.757304 0.637335 -0.142463
98.99849701 12.16870117 27.90609932 -0.866480 0.498800 -0.020276
99.26709747 12.16210175 27.90789986 0.735417 0.534699 -0.416243
99.27490234 12.16100311 27.90299988 0.890746 0.452807 0.039198
99.27469635 12.17990112 27.90880013 0.605075 0.116304 -0.787628
99.24539948 12.18160248 27.90329933 0.381063 -0.057093 -0.922784
99.28579712 12.18109894 27.90679932 0.790287 0.421810 -0.444436
99.23919678 12.19699860 27.90609932 0.682033 0.728175 -0.067771
99.28109741 12.20529938 27.90959930 0.795423 0.456602 -0.398518
99.01080322 12.21450043 27.90469933 -0.818399 0.570744 0.066895
99.02570343 12.21130371 27.90719986 -0.905221 0.424199 0.025108
99.27189636 12.21600342 27.90539932 0.779239 0.466893 -0.418088
99.03150177 12.23600006 27.90460014 -0.792566 0.563017 -0.234203
99.18740082 12.23329926 27.90169907 0.211835 0.977249 0.010533
99.02529907 12.24389648 27.90550041 -0.462553 0.886225 -0.025474
99.04669952 12.24559784 27.90559959 -0.179931 0.940860 -0.287065
99.14679718 12.24669647 27.90830040 -0.186550 0.805349 0.562683
99.03040314 12.25070190 27.90449905 -0.462553 0.886225 -0.025474
99.18360138 12.25229645 27.90839958 0.190927 0.980726 0.041506
99.07254791 12.26604843 27.90464973 -0.476264 0.854872 0.205830
99.09940338 12.27089691 27.90270042 0.396211 0.917471 -0.035541
99.13760376 11.94670105 27.91029930 -0.081580 -0.929474 0.359753
99.03919983 11.95400238 27.91460037 0.339040 -0.522217 -0.782522
99.10279846 11.95659637 27.90999985 -0.190339 -0.796380 0.574064
98.99710083 11.96990204 27.91519928 -0.869101 -0.457500 -0.188034
99.05110168 11.96520233 27.91860008 -0.022305 -0.997365 0.069040
99.06469727 11.96615219 27.91614914 0.133057 -0.885614 0.444953
99.16490173 11.96890259 27.91329956 -0.238402 -0.967482 0.084513
99.17790222 11.96540070 27.91939926 -0.052503 -0.997557 -0.046074
99.21589661 11.96700287 27.91259956 0.322765 -0.945149 0.050151
99.23619843 11.96690369 27.91570091 0.482801 -0.875498 -0.020173
99.08049774 11.97669983 27.91259956 -0.114244 -0.988154 0.102467
99.25769806 11.97589874 27.91724968 0.228214 -0.952019 0.203908
99.01679993 11.98359680 27.91620064 0.030896 -0.987513 -0.154478
99.04599762 11.98439789 27.91029930 -0.659084 -0.746767 0.089144
99.23840332 11.98010254 27.91160011 0.365822 -0.918060 0.152776
99.24410248 11.98609924 27.91360092 0.389495 -0.843124 0.370724
99.03510284 11.99770355 27.91909981 -0.822094 -0.569351 0.001359
99.27909851 11.99069977 27.91679955 0.591738 -0.801942 0.082066
99.28769684 11.99019623 27.91379929 0.330983 -0.940202 0.080438
98.99040222 12.00469971 27.91180038 -0.967892 -0.124023 -0.218639
99.00019836 12.00039673 27.91790009 -0.701991 -0.508569 0.498564
99.02200317 12.00710297 27.91799927 -0.077041 -0.707906 0.702092
99.26889801 12.00669861 27.91550064 0.907026 0.375172 0.191180
99.29299927 12.00420380 27.91069984 0.879101 -0.454707 -0.142908
99.30110168 12.00830078 27.91670036 0.785478 -0.577877 -0.221545
98.96140289 12.02780151 27.91939926 -0.737067 -0.675293 0.026675
99.27629852 12.02680206 27.91440010 0.747738 -0.098425 0.656658
99.30370331 12.02290344 27.91060066 0.851939 -0.466213 -0.238422
98.97039795 12.04900360 27.91819954 -0.903072 0.033348 0.428192
99.29740143 12.04389954 27.91329956 0.483207 -0.824111 -0.295554
99.31620026 12.04409790 27.91839981 0.670996 -0.683808 0.286655
99.33779907 12.04000092 27.91860008 0.839043 -0.432802 0.329680
99.33090210 12.05090332 27.91250038 0.460086 0.747021 -0.479875
98.96269989 12.06659698 27.91600037 -0.890716 0.226002 0.394396
98.99099731 12.06700134 27.91060066 -0.513461 0.396098 -0.761226
99.30670166 12.09259796 27.91990089 0.348548 0.656187 0.669278
99.33910370 12.09190369 27.91909981 -0.237189 0.971404 -0.010727
99.32640076 12.10630035 27.91790009 0.897744 0.440278 -0.014544
99.31210327 12.11380005 27.91769981 -0.172850 0.483092 0.858338
99.31770325 12.12920380 27.91760063 -0.212813 0.809915 -0.546578
98.98455048 12.13570023 27.91839981 -0.909774 0.293523 0.293523
99.28900146 12.13700104 27.91629982 0.286963 0.100896 -0.952613
99.33950043 12.13600159 27.91559982 0.072577 0.983953 -0.163001
98.97489929 12.14420319 27.91020012 -0.828927 0.314961 -0.462256
98.99980164 12.14240265 27.91440010 -0.811711 0.510263 0.284177
99.29090118 12.15830231 27.91810036 0.790494 0.396055 -0.467183
99.00129700 12.16230011 27.91320038 -0.833859 0.527665 -0.162015
99.28859711 12.16750336 27.91200066 0.750157 0.531157 -0.393873
99.30010223 12.16059875 27.91010094 0.793113 0.599599 -0.107019
99.00430298 12.17250061 27.91209984 -0.941031 0.289865 -0.174469
99.00980377 12.19740295 27.91290092 -0.899065 0.433891 -0.058487
99.26110077 12.19390106 27.91349983 0.597476 0.570395 -0.563625
99.27410126 12.19319916 27.91029930 0.727769 0.186173 -0.660070
99.28420258 12.19680023 27.91869926 0.827714 0.348428 -0.439871
99.01730347 12.20809937 27.91580009 -0.868079 0.471243 -0.156108
99.26069641 12.20189667 27.91049957 0.360280 0.741752 -0.565688
99.27870178 12.20149994 27.91360092 0.841099 0.343018 -0.418200
99.23410034 12.21579742 27.91710091 0.592010 0.803137 0.067047
99.25260162 12.22399902 27.91519928 0.487558 0.859449 0.153735
99.15599823 12.23960114 27.91740036 0.496272 0.868141 -0.006688
99.02929688 12.24310303 27.91760063 -0.664818 0.733851 0.139567
99.05209351 12.24805069 27.91730118 -0.143265 0.949298 0.279835
99.08309937 12.24050140 27.91189957 -0.130369 0.987751 0.085738
99.10230255 12.24210358 27.91200066 0.361982 0.930622 0.053968
99.19519806 12.24330139 27.91860008 0.257231 0.956372 0.138509
99.20179749 12.24970245 27.91460037 0.477257 0.878738 -0.006647
99.21209717 12.24089813 27.91370010 0.355963 0.853379 0.380834
99.10060120 12.25409698 27.91690063 0.646374 0.746282 -0.158944
99.15080261 12.25530243 27.91920090 0.885921 0.335416 -0.320375
99.16739655 12.25160217 27.91329956 0.419871 0.905894 0.055353
99.19789886 12.25199890 27.91349983 0.484314 0.861816 0.150708
99.14640045 12.26779938 27.90999985 0.738435 0.673238 -0.038268
99.08630371 12.27459717 27.91360092 0.335127 0.905867 -0.259028
99.22519684 11.95999908 27.92370033 0.483977 -0.871158 -0.082767
99.03639984 11.96769714 27.92049980 -0.073233 -0.989233 0.126706
99.13240051 11.96610260 27.92210007 -0.434808 -0.843122 0.316366
99.15000153 11.96070099 27.92429924 0.060685 -0.969723 0.236548
99.19219971 11.96520233 27.92650032 -0.105473 -0.993663 0.038858
99.00569916 11.97319794 27.92620087 -0.401345 -0.823313 0.401345
99.07589722 11.97280121 27.92569923 0.225095 -0.965980 0.127340
99.09839630 11.97650146 27.92280006 -0.041067 -0.961971 0.270049
99.12249756 11.97039795 27.92200089 -0.194552 -0.964924 0.176272
99.24739838 11.97899628 27.92670059 0.636967 -0.768654 0.058687
98.98880005 11.98850250 27.92289925 -0.824628 -0.428933 0.368788
99.04679871 11.98870087 27.92530060 -0.646405 -0.748865 0.146157
99.11080170 11.98320007 27.92880058 -0.308112 -0.949905 -0.052417
99.29329681 11.99639893 27.92980003 0.633405 -0.757365 -0.158729
98.98020172 12.01129913 27.92060089 -0.774756 -0.533148 0.339862
99.00129700 12.01540375 27.92469978 -0.012486 -0.761640 0.647880
99.28730011 12.01139832 27.92259979 0.485959 -0.850053 -0.203110
98.98819733 12.02839661 27.92650032 -0.719998 -0.616448 0.318741
99.25789642 12.02590179 27.92429924 0.638021 -0.748183 0.182073
99.30359650 12.02670288 27.92749977 0.760583 0.076783 -0.644685
99.31549835 12.02110291 27.92070007 0.694619 -0.568022 -0.441425
98.96589661 12.03189850 27.92429924 -0.765850 -0.628505 0.135853
99.28890228 12.05159760 27.92119980 0.473723 -0.848436 0.236100
99.32230377 12.05870056 27.92630005 0.405364 -0.869938 0.280870
99.33809662 12.05449677 27.92049980 0.240899 -0.969711 -0.040354
98.96589661 12.06159973 27.92200089 -0.928471 0.248065 0.276415
98.98059845 12.07219696 27.92600060 -0.875995 0.365883 -0.314265
98.97360229 12.08309937 27.92490005 -0.889564 0.203706 -0.408877
99.29560089 12.09500122 27.92280006 0.612220 0.632348 0.474681
98.98110199 12.11399841 27.92460060 -0.974592 0.217793 0.052319
98.99150085 12.11830139 27.92560005 -0.777317 0.624449 0.076434
98.97399902 12.12609863 27.92189980 -0.862566 0.483095 0.150329
99.28549957 12.12770081 27.92539978 0.859803 0.095218 -0.501670
99.29810333 12.12270355 27.92250061 0.943709 -0.013823 -0.330487
98.96320343 12.13099670 27.92230034 -0.925490 0.076343 -0.370999
99.32119751 12.13870239 27.92650032 -0.160490 0.974315 -0.157963
99.34320068 12.13950348 27.92160034 -0.144226 0.989137 -0.028391
99.00090027 12.14810181 27.92939949 -0.947601 0.166745 -0.272486
99.30599976 12.14199829 27.92140007 0.619239 0.772175 0.142440
98.96430206 12.15899658 27.92200089 -0.929443 0.342861 -0.136318
98.97899628 12.15650177 27.92609978 -0.866391 0.484202 -0.122128
99.31809998 12.15090179 27.92440033 0.538467 0.837137 -0.096206
98.99990082 12.17939758 27.92700005 -0.764098 0.489219 -0.420499
99.27510071 12.17569733 27.92779922 0.888460 0.229137 -0.397663
99.01429749 12.18849945 27.92600060 -0.835380 0.451261 -0.313853
99.28849792 12.18430328 27.92880058 0.950472 0.264842 -0.162669
99.30259705 12.19200134 27.92779922 0.747221 -0.408919 -0.523876
99.01679993 12.21620178 27.92580032 -0.896916 0.429568 -0.104943
99.27169800 12.21269989 27.92840004 0.573236 0.810740 -0.118752
99.18180084 12.22889709 27.92670059 0.022286 0.979424 0.200577
99.24079895 12.22380066 27.92609978 -0.023654 0.990074 0.138543
99.03440094 12.23329926 27.92070007 -0.808076 0.546413 0.220104
99.04190063 12.23459625 27.92569923 -0.298117 0.809173 0.506325
99.19940186 12.23300171 27.92970085 0.357267 0.920487 0.158318
99.09429932 12.24900055 27.92790031 -0.275839 0.961185 0.006076
99.16139984 12.24430084 27.92340088 0.722442 0.639877 -0.261984
99.02279663 12.25319672 27.92340088 0.021311 0.999587 0.019281
99.04080200 12.25289917 27.92749977 0.252479 0.958896 -0.129510
99.18139648 12.25000000 27.92950058 0.000989 0.999917 0.012857
99.11430359 12.26419830 27.92790031 -0.939322 0.307638 0.151768
99.18789673 12.26589966 27.92230034 0.277052 0.932414 0.232049
99.15280151 12.27449799 27.92700005 0.550759 0.829733 -0.090595
99.23829651 11.94490051 27.93799973 0.497767 -0.814956 -0.296776
99.20249939 11.95639801 27.93460083 0.061383 -0.994408 0.085936
99.13860321 11.96549988 27.93709946 -0.062425 -0.956761 -0.284098
99.16770172 11.96269989 27.93330002 0.018017 -0.997313 0.071010
99.22360229 11.96990204 27.93959999 0.209030 -0.932919 0.293203
99.05970001 11.97209930 27.93460083 -0.081975 -0.995722 0.042627
99.11640167 11.97619629 27.93390083 -0.220411 -0.963807 -0.149984
99.14219666 11.97850037 27.93400002 -0.237689 -0.964888 -0.111778
99.25315094 11.97090149 27.93580055 0.569446 -0.767237 -0.295091
99.26589966 11.97419739 27.93190002 0.671704 -0.735815 -0.085966
99.03299713 11.98239899 27.93729973 -0.060942 -0.997518 0.035282
99.04530334 11.98539734 27.93029976 -0.489717 -0.869838 0.059654
99.08850098 11.98100281 27.93370056 0.011318 -0.941881 0.335757
99.22419739 11.98560333 27.93350029 0.671993 -0.700320 0.240784
99.25949860 11.98799896 27.93770027 0.618556 -0.784819 0.038043
99.23930359 11.99179840 27.93750000 0.662850 -0.420303 0.619657
99.27519989 11.99320221 27.93269920 0.485018 -0.806243 0.338718
99.28109741 11.99700165 27.93470001 0.656849 -0.730687 0.186133
99.29329681 11.99639893 27.93379974 0.451947 -0.892036 0.003953
99.30159760 11.99819946 27.93280029 0.694305 -0.719451 -0.018161
99.26129913 12.00569916 27.93250084 0.566176 -0.258779 0.782610
99.29759979 12.00630188 27.93470001 0.731526 -0.680390 0.044034
98.99720001 12.01999664 27.93569946 -0.767664 -0.580892 0.270661
98.97619629 12.02320099 27.93050003 -0.783059 -0.607725 0.132243
99.24349976 12.02050018 27.93919945 0.528717 0.165317 0.832543
98.97560120 12.03710175 27.93239975 -0.811811 -0.583790 0.012363
99.31340027 12.03549957 27.93849945 0.859679 0.463597 0.214545
98.98979950 12.04270172 27.93840027 -0.644948 -0.750184 0.145827
99.27700043 12.04060364 27.93320084 0.700268 -0.706165 -0.104672
99.33969879 12.05570221 27.93750000 0.424407 0.877107 -0.224861
99.31140137 12.06849670 27.93420029 0.996386 -0.062206 -0.057841
99.32279968 12.09709930 27.93190002 -0.636781 0.736914 -0.226863
99.29519653 12.10679626 27.93770027 0.738833 0.454539 -0.497514
99.32640076 12.12310028 27.93169975 0.987915 -0.030837 -0.151899
98.99680328 12.13960266 27.93939972 -0.988051 0.085764 -0.128059
98.97979736 12.14409637 27.93429947 -0.982788 -0.102752 0.153523
99.27850342 12.16850281 27.93289948 0.955982 -0.008590 -0.293299
98.99040222 12.17939758 27.93700027 -0.659784 0.609674 -0.439299
99.29810333 12.17859650 27.93090057 0.934507 0.331511 -0.129603
98.99639893 12.18679810 27.93889999 -0.681786 0.694324 -0.230396
99.29360199 12.18640137 27.93050003 0.950472 0.264842 -0.162669
99.02279663 12.19760132 27.93099976 -0.837402 0.388064 -0.384922
99.06240082 12.19670105 27.93020058 -0.769262 0.161711 -0.618130
99.05819702 12.20390320 27.93339920 -0.625566 0.046811 -0.778766
99.24089813 12.20500183 27.93429947 0.245933 0.934547 -0.257176
99.26969910 12.20089722 27.93650055 0.596449 0.802216 0.026416
99.27600098 12.20960236 27.93250084 0.630423 0.775797 -0.026559
99.06330109 12.21029663 27.93110085 -0.533864 0.042986 -0.844477
99.21230316 12.21279907 27.93400002 0.372269 0.791274 0.485078
99.22059631 12.21459961 27.93009949 0.315763 0.899850 0.300938
99.05059814 12.22840118 27.93479919 0.796399 0.569295 -0.204087
99.17369843 12.22859955 27.93460083 0.275066 0.958253 0.078042
99.04489899 12.23549652 27.93770027 0.599103 0.798330 -0.061191
99.05740356 12.23989868 27.93980026 -0.621410 0.490055 0.611306
99.06379700 12.23560333 27.93390083 -0.217811 0.344747 -0.913076
99.22285461 12.23619843 27.93239975 0.545511 0.827824 -0.130864
99.02500153 12.24060059 27.93460083 -0.988498 0.005597 0.151129
99.17510223 12.24130249 27.93149948 0.097541 0.955902 0.277016
99.04599762 12.25039673 27.93860054 0.271420 0.883239 -0.382387
99.12149811 12.25469971 27.93899918 -0.619184 0.239836 0.747723
99.17160034 12.25800323 27.93029976 0.402165 0.912027 0.080433
99.10260010 12.27690125 27.93169975 -0.878175 0.070753 0.473077
99.12394714 12.27700043 27.93730164 0.189502 0.163719 0.968135
99.10540009 11.95989990 27.94499969 -0.167155 -0.922867 -0.346953
99.14250183 11.95390320 27.94729996 0.192327 -0.958981 -0.208244
99.24240112 11.95709991 27.94890022 0.158114 -0.986772 0.035778
99.07980347 11.96849823 27.94869995 -0.045225 -0.939396 -0.339837
99.01529694 11.97480011 27.94330025 -0.276966 -0.899028 0.339172
99.04910278 11.97389984 27.94650078 -0.181910 -0.974788 -0.129219
99.07730103 11.97989655 27.94459915 0.292863 -0.918983 0.264009
99.18889618 11.97039795 27.94140053 0.001061 -0.995927 0.090153
99.21869659 11.97389984 27.94459915 0.159679 -0.701069 0.694986
99.23200226 11.97530365 27.94059944 0.824342 -0.395494 0.405024
99.05599976 11.98169708 27.94140053 -0.216576 -0.953740 0.208505
99.10019684 11.98500061 27.94169998 -0.297687 -0.948629 -0.107167
99.15170288 11.98220062 27.94199944 -0.250981 -0.889571 0.381669
99.27290344 11.98370361 27.94879913 0.586177 -0.783108 0.207700
99.24739838 11.99949646 27.94750023 0.597084 -0.790652 -0.135498
98.99269867 12.00659943 27.94280052 -0.878854 -0.468253 0.091401
99.27519989 12.01360321 27.94750023 0.950259 -0.218872 0.221591
99.30770111 12.01650238 27.94370079 0.946832 -0.244564 -0.209041
98.97949982 12.02549744 27.94650078 -0.615195 -0.770133 -0.168609
99.00830078 12.02120209 27.94070053 -0.816300 -0.534500 -0.219007
99.27770233 12.02459717 27.94140053 -0.190148 -0.958720 0.211424
99.32479858 12.02510071 27.94869995 0.974464 0.224515 -0.003526
98.95290375 12.04299927 27.94510078 -0.883907 -0.452594 0.117760
98.97070313 12.05789948 27.94910049 -0.997131 0.061445 -0.044197
99.29969788 12.05879974 27.94519997 0.746444 -0.664912 -0.026709
98.97460175 12.08519745 27.94479942 -0.994970 -0.096990 -0.025065
99.32440186 12.08519745 27.94309998 0.986833 0.138275 -0.083910
98.96320343 12.09940338 27.94960022 -0.928478 -0.367440 0.053997
99.30269623 12.09510040 27.94379997 0.915778 -0.027592 -0.400735
99.33570099 12.09719849 27.94700050 0.969574 0.236512 0.063152
99.32640076 12.10070038 27.94090080 0.743832 0.661996 -0.092066
98.95079803 12.11509705 27.94440079 -0.833322 0.447263 0.324854
98.96330261 12.11599731 27.94449997 -0.575851 0.790835 0.207306
98.98519897 12.11329651 27.94459915 -0.957487 0.245000 0.152297
99.31669617 12.11229706 27.94269943 0.931717 -0.087139 -0.352578
98.98210144 12.12560272 27.94549942 -0.984538 0.155955 0.079763
99.30999756 12.12830353 27.94650078 0.879174 0.272951 -0.390577
99.34049988 12.12879944 27.94869995 0.970662 -0.239358 -0.022853
99.29920197 12.14160156 27.94829941 0.961986 0.259340 -0.085595
99.30870056 12.14520264 27.94140053 0.661307 0.648113 -0.377654
99.34120178 12.14450073 27.94560051 0.726882 0.683701 -0.064772
99.29460144 12.15989685 27.94610023 0.828498 0.543012 0.136857
98.98380280 12.16940308 27.94400024 -0.959134 0.280631 0.036170
99.29479980 12.16709900 27.94400024 0.942008 0.125332 -0.311307
99.31210327 12.16040039 27.94820023 0.875864 0.479869 -0.050874
98.99259949 12.17610168 27.94400024 -0.828330 0.521316 -0.205183
99.28009796 12.17819977 27.94549942 0.801374 0.444851 0.399884
99.29609680 12.19290161 27.94680023 0.680712 0.725010 0.104839
99.00689697 12.21130371 27.94370079 -0.848240 0.454139 -0.272483
99.25540161 12.21199799 27.94330025 0.388064 0.837402 0.384922
99.03929901 12.22380066 27.94879913 0.669515 0.726945 -0.152643
99.05259705 12.22149658 27.94790077 -0.598522 0.116175 -0.792638
99.23300171 12.22499847 27.94300079 0.393640 0.886805 -0.242126
99.24589539 12.22615051 27.94409943 0.425963 0.902280 -0.066684
99.02700043 12.23370361 27.94759941 -0.615498 0.783493 0.085446
99.18910217 12.23609924 27.94260025 0.466869 0.883957 -0.025563
99.11100006 12.24330139 27.94210052 -0.155160 0.987889 -0.001116
99.15540314 12.24430084 27.94330025 0.160334 0.984572 -0.070072
99.17620087 12.24340057 27.94949913 0.609338 0.698029 -0.376115
99.19613647 12.24620056 27.94523430 0.515989 0.856352 -0.020422
99.02629852 12.25340271 27.94939995 -0.632986 0.765781 -0.113613
99.07230377 12.25189972 27.94470024 -0.132140 0.988130 -0.078349
99.10980225 12.25080109 27.94400024 -0.211545 0.883164 0.418652
99.16570282 12.25800323 27.94029999 0.568426 0.732237 -0.375128
99.10399628 12.26740265 27.94779968 -0.646023 0.757356 -0.095219
99.14330292 12.27459717 27.94499969 0.157006 0.888740 0.430686
99.11550140 12.28659821 27.94969940 -0.122459 0.983306 -0.134583
99.06719971 11.95110321 27.95980072 -0.502240 -0.806435 0.312117
99.05719757 11.96479797 27.95059967 -0.228109 -0.936227 -0.267293
99.11129761 11.96379852 27.95299911 -0.081025 -0.936432 -0.341366
99.15190125 11.96710205 27.95219994 -0.003086 -0.998724 0.050399
99.16709900 11.96739960 27.95929909 -0.015192 -0.999658 -0.021269
99.19599915 11.96669769 27.95249939 0.093041 -0.995648 -0.005347
99.20909882 11.96099854 27.95859909 -0.022123 -0.981575 -0.189794
99.23159790 11.96099854 27.95280075 0.470919 -0.879327 0.070846
99.25119781 11.96749878 27.95380020 0.632243 -0.773684 -0.041018
99.27359772 11.96769714 27.95800018 0.635671 -0.769947 -0.055710
99.06269836 11.97669983 27.95649910 0.639612 -0.659445 -0.395006
99.21710205 11.97080231 27.95560074 0.300227 -0.789487 0.535326
99.24140167 11.97920227 27.95759964 0.537144 -0.843303 -0.017768
99.06510162 11.98410034 27.95149994 0.170146 -0.984994 -0.028936
99.11219788 11.98090363 27.95079994 -0.474335 -0.878142 0.062231
99.24530029 11.98989868 27.95560074 0.144152 -0.964910 0.219475
99.00800323 11.99749756 27.95400047 -0.603622 -0.783360 -0.148284
99.09220123 11.99189758 27.95059967 -0.038790 -0.994145 -0.100855
99.21399689 11.99610138 27.95529938 0.668137 -0.584411 0.460496
99.28399658 11.99800110 27.95870018 0.441111 -0.806833 0.392990
99.30539703 11.99980164 27.95779991 0.724836 -0.663279 0.186210
99.29070282 12.01170349 27.95359993 0.507811 -0.821505 0.259341
98.98310089 12.02909851 27.95450020 -0.799672 -0.510327 -0.316371
98.96769714 12.03829956 27.95330048 -0.687949 -0.703271 0.179265
99.28869629 12.03890228 27.95630074 0.772371 -0.630890 -0.073628
99.30899811 12.03880310 27.95549965 0.964162 0.264505 0.020722
99.30580139 12.04740143 27.95039940 0.996991 -0.071904 0.028976
98.96099854 12.05069733 27.95809937 -0.981970 0.176251 -0.068342
99.29640198 12.05100250 27.95829964 0.920601 -0.369625 0.125977
99.33670044 12.06600189 27.95739937 0.542152 0.676431 0.498511
99.30760193 12.07820129 27.95499992 0.544204 -0.121096 -0.830167
99.33640289 12.08119965 27.95820045 0.983752 0.133983 -0.119499
99.32189941 12.10040283 27.95490074 0.922438 0.203249 -0.328325
99.31189728 12.11409760 27.95170021 0.942127 0.334385 0.024157
98.97029877 12.12180328 27.95840073 -0.895954 0.420201 0.143865
99.32070160 12.13760376 27.95750046 0.528339 0.799606 -0.285461
99.34329987 12.13189697 27.95770073 0.547164 0.644811 0.533695
98.97969818 12.14790344 27.95019913 -0.975964 0.154100 -0.154100
98.98909760 12.14440155 27.95630074 -0.935853 0.275580 -0.219625
99.29290009 12.14949799 27.95420074 0.634692 0.717825 0.286171
99.32309723 12.14869690 27.95940018 0.477573 0.832253 -0.281566
99.32790375 12.16349792 27.95730019 0.759395 0.507897 -0.406644
98.98000336 12.17539978 27.95789909 -0.935192 0.341164 0.094991
99.28119659 12.18470001 27.95179939 0.851352 0.452521 0.265376
99.26439667 12.19059753 27.95660019 0.704024 0.588610 0.397353
99.20310211 12.20850372 27.95700073 0.064764 0.883270 -0.464371
99.28459930 12.20349884 27.95260048 0.640830 0.754889 0.139572
99.22720337 12.21910095 27.95409966 0.218853 0.971709 -0.088792
99.25199890 12.21009827 27.95929909 0.620625 0.779760 0.082461
99.20210266 12.22319794 27.95389938 0.509616 0.855070 -0.095642
99.25340271 12.22270203 27.95120049 0.390491 0.912998 -0.118120
99.02770233 12.24379730 27.95949936 -0.819179 0.527164 -0.225928
99.06710052 12.24150085 27.95179939 -0.422087 0.883882 0.201484
99.08300018 12.24819946 27.95380020 -0.258819 0.965358 -0.033119
99.12480164 12.24030304 27.95019913 0.006896 0.999972 0.002956
99.18730164 12.24829865 27.95750046 0.588498 0.804328 -0.082016
99.20040131 12.24359894 27.95450020 0.484913 0.847464 -0.216020
99.21019745 12.24030304 27.95569992 0.324265 0.905301 -0.274378
99.03949738 12.25129700 27.95350075 0.540383 0.826205 -0.159286
99.05110168 12.25740051 27.95050049 0.086520 0.990946 -0.102671
99.08779907 12.25360107 27.95380020 -0.353684 0.926183 -0.130739
99.13140106 12.25409698 27.95009995 -0.432637 0.369247 0.822485
99.11009979 12.26899719 27.95579910 -0.867697 0.483329 0.116171
99.14849854 12.26260376 27.95509911 -0.510714 0.859361 0.025876
99.16729736 12.26280212 27.95919991 0.417323 0.908750 -0.003900
99.18270111 12.26660156 27.95429993 0.399503 0.915250 -0.052109
99.12889862 11.95850372 27.96010017 -0.126551 -0.990748 0.049024
99.19619751 11.95520020 27.96260071 -0.032482 -0.998549 0.042960
99.20690155 11.95140076 27.96669960 -0.057655 -0.972770 -0.224485
99.09899902 11.96440125 27.96389961 -0.431829 -0.833823 -0.343893
99.15390015 11.96019745 27.96629906 -0.035243 -0.925449 0.377228
99.21839905 11.96690369 27.96059990 -0.136183 -0.911162 -0.388893
99.04879761 11.97989655 27.96739960 -0.266338 -0.956457 -0.119393
99.07835388 11.97264862 27.96770096 0.394253 -0.710974 -0.582306
99.11329651 11.97000122 27.96789932 -0.174075 -0.975573 -0.134000
99.16169739 11.97949982 27.96710014 -0.346590 -0.913214 0.214282
99.17379761 11.97170258 27.96229935 -0.306287 -0.918860 0.248768
99.02320099 11.98850250 27.96619987 -0.672999 -0.726958 0.136398
99.13770294 11.98200226 27.96899986 0.130076 -0.957829 -0.256209
99.20719910 11.98819733 27.96330070 0.509945 -0.466757 0.722560
99.27870178 11.98760223 27.96479988 0.683833 -0.719589 0.120676
99.08020020 11.99389648 27.96150017 0.356465 -0.932595 -0.056561
99.25779724 11.99449921 27.96660042 0.699008 -0.710633 -0.079928
98.98110199 12.00070190 27.96279907 -0.597750 -0.775999 -0.201299
99.26879883 12.00140381 27.96260071 0.494825 -0.862735 0.104099
99.30809784 12.01589966 27.96769905 0.817357 -0.570283 -0.081879
99.26969910 12.02220154 27.96839905 0.803351 -0.566446 -0.183753
99.30059814 12.02770233 27.96549988 0.705933 0.086232 0.703010
99.32420349 12.02970123 27.96470070 0.851021 -0.498772 0.164284
98.98809814 12.03240204 27.96249962 -0.735674 -0.677265 -0.009735
98.98229980 12.06559753 27.96910095 -0.511309 0.592308 0.622683
99.30999756 12.06330109 27.96520042 0.619047 -0.432165 -0.655755
99.32559967 12.06849670 27.96229935 0.926106 0.113540 -0.359772
99.33689880 12.06390381 27.96839905 0.821039 -0.495751 0.283063
98.97650146 12.07479858 27.95999908 -0.597003 0.103636 0.795517
98.98979950 12.08930206 27.96489906 -0.915641 0.229271 0.330207
98.96140289 12.09850311 27.96859932 -0.955212 -0.281250 -0.092022
98.98609924 12.09880066 27.96579933 -0.915955 -0.339720 0.213580
99.30660248 12.09079742 27.96689987 0.689722 -0.199942 -0.695922
98.96179962 12.10350037 27.96759987 -0.761489 -0.648164 0.004146
98.98979950 12.10600281 27.96969986 -0.973382 -0.197188 -0.116806
99.32499695 12.10479736 27.96389961 0.891992 0.288366 -0.348131
99.32260132 12.12349701 27.96170044 0.996789 0.077991 0.018162
99.34490204 12.12950134 27.96969986 0.546953 0.647929 0.530123
98.98234558 12.14564896 27.96475029 -0.981865 0.170287 -0.083332
99.30049896 12.14140320 27.96129990 0.708245 0.620325 0.337027
99.31999969 12.14800262 27.96540070 0.284974 0.953817 -0.094991
99.27210236 12.16729736 27.96789932 0.850119 0.523472 0.057233
99.28739929 12.16750336 27.96599960 0.840991 0.539947 -0.034523
99.29840088 12.17449951 27.96500015 0.825926 0.560500 -0.060709
98.98940277 12.18859863 27.96089935 -0.732294 0.673357 0.101667
99.01650238 12.18689728 27.96310043 -0.240219 0.956894 0.163243
99.31210327 12.18080139 27.96400070 0.488548 0.849323 -0.199929
99.25189972 12.19349670 27.96850014 0.582065 0.787860 0.201189
99.27770233 12.19210052 27.96170044 0.543281 0.768976 0.336931
99.00350189 12.20359802 27.96980095 -0.936627 0.343825 -0.067184
99.26490021 12.20649719 27.96240044 0.772639 0.596125 0.218321
99.23349762 12.21489716 27.96220016 0.432405 0.900955 -0.036145
99.04640198 12.22380066 27.96290016 0.160655 0.977631 -0.135748
99.22570038 12.22899628 27.96599960 0.126549 0.916436 -0.379646
99.05639648 12.23960114 27.96080017 -0.436166 0.885374 -0.160845
99.17510223 12.23580170 27.96260071 0.210154 0.950438 -0.229136
99.19380188 12.23239899 27.96769905 0.576280 0.817196 0.009582
99.20220184 12.23419952 27.96980095 0.465777 0.884025 -0.039381
99.21379852 12.23090363 27.96389961 0.445280 0.855365 -0.264719
99.22889709 12.23690033 27.96089935 0.310102 0.933087 -0.182168
99.08820343 12.24559784 27.96290016 -0.169365 0.985500 -0.010230
99.17109680 12.24400330 27.96949959 0.163016 0.974303 -0.155434
99.13330078 12.25669861 27.96409988 -0.097865 0.993275 -0.061869
99.14679718 12.25219727 27.96619987 -0.344001 0.926156 0.154591
99.18209839 12.25460052 27.96940041 0.499545 0.854061 0.145029
99.23059845 12.25099945 27.96380043 0.873045 0.155953 -0.462029
99.04229736 12.26740265 27.96540070 0.093211 0.981737 -0.165842
99.07469940 12.26309967 27.96360016 0.160201 0.965116 -0.207090
99.17230225 11.95549774 27.97649956 0.090112 -0.988893 -0.118199
99.22820282 11.95899963 27.97080040 0.130567 -0.972284 0.193950
99.03690338 11.96880341 27.97450066 -0.292924 -0.954856 0.049455
99.07039642 11.96649933 27.97870064 0.060551 -0.949488 -0.307907
99.09470367 11.96179962 27.97590065 -0.123679 -0.915784 -0.382156
99.13089752 11.96829987 27.97809982 0.158413 -0.962264 -0.221255
99.14559937 11.96579742 27.97719955 0.023133 -0.965510 -0.259336
99.17410278 11.96019745 27.97139931 0.052023 -0.955440 0.290565
99.18430328 11.96080017 27.97550011 -0.199163 -0.912713 0.356775
99.25270081 11.96890259 27.97879982 0.564443 -0.800009 0.203444
99.01450348 11.97239685 27.97730064 -0.715581 -0.383288 -0.583980
99.07250214 11.97260284 27.97960091 -0.098993 -0.946372 -0.307538
99.09480286 11.97850037 27.97870064 -0.067604 -0.758027 -0.648710
99.17250061 11.97940063 27.97820091 -0.046665 -0.784823 0.617960
99.19349670 11.97250366 27.97139931 0.182453 -0.906517 0.380708
99.25450134 11.97350311 27.97380066 0.547436 -0.743533 0.384022
99.03559875 11.98580170 27.97730064 -0.587024 -0.807688 -0.055166
99.09140015 11.98930359 27.97260094 -0.350223 -0.601080 -0.718364
99.21929932 11.98789978 27.97839928 0.200072 -0.963746 -0.176534
99.25209808 11.98850250 27.97360039 0.489615 -0.869032 -0.071141
99.01719666 11.99780273 27.97699928 -0.557404 -0.829912 -0.023397
99.15249634 11.99030304 27.97699928 -0.114099 -0.438084 -0.891663
99.23940277 11.99359894 27.97949982 0.455109 -0.890316 0.014595
99.27600098 11.99559784 27.97570038 0.733197 -0.660333 0.162427
98.97650146 12.00980377 27.97360039 -0.297069 -0.812617 -0.501402
98.98629761 12.00180054 27.97480011 -0.339067 -0.939253 0.053263
99.02400208 12.00209808 27.97100067 -0.609851 -0.790967 0.049524
99.26309967 12.00279999 27.97750092 0.614658 -0.741719 -0.268417
99.28289795 12.00710297 27.97459984 0.395082 -0.853687 0.339306
99.29850006 12.00869751 27.97870064 0.593852 -0.733011 0.331716
99.30919647 12.00119781 27.97190094 0.932282 -0.351779 -0.084267
98.99600220 12.01629639 27.97170067 -0.553691 -0.832587 0.015039
99.29869843 12.01950073 27.97660065 0.907111 -0.417943 -0.049723
99.27770233 12.02269745 27.97839928 0.819523 -0.564238 -0.100083
98.96450043 12.03410339 27.97030067 -0.864778 -0.454121 0.214321
98.97129822 12.04209900 27.97830009 -0.710871 -0.165921 0.683471
99.28589630 12.04329681 27.97629929 0.639430 -0.741615 -0.202822
99.30290222 12.04830170 27.97929955 0.799525 -0.575840 -0.170787
99.32444763 12.04890060 27.97394943 0.639796 -0.730970 -0.237369
99.32669830 12.05750275 27.97839928 0.846816 -0.448859 0.285357
98.96559906 12.06210327 27.97200012 -0.998366 0.034790 0.045332
99.33709717 12.06169891 27.97139931 0.838693 -0.541860 -0.054606
99.31510162 12.07019806 27.97120094 0.393162 -0.235897 -0.888694
99.33609772 12.08370209 27.97620010 0.994521 0.065707 -0.081299
98.99980164 12.09590149 27.97890091 -0.773938 0.287644 -0.564164
99.32389832 12.09719849 27.96999931 0.992028 0.085618 -0.092468
98.97689819 12.12619781 27.97039986 -0.967967 0.239174 -0.076386
99.30709839 12.12920380 27.97949982 0.864005 0.425145 0.269716
99.32199860 12.12809753 27.97960091 0.932748 0.312770 0.179321
99.32630157 12.13430023 27.97660065 0.678574 0.625741 0.384690
98.98359680 12.14369965 27.97929955 -0.907977 0.389538 0.154399
99.29160309 12.14420319 27.97529984 0.451687 0.771293 0.448426
99.30010223 12.15319824 27.97520065 0.888520 0.093749 0.449158
98.98909760 12.16480255 27.97209930 -0.948213 0.197261 0.248957
99.31250000 12.16349792 27.97719955 0.197081 0.932289 -0.303308
99.00029755 12.18630219 27.97599983 -0.698823 0.650629 0.297201
99.27300262 12.18460083 27.97769928 0.556521 0.822366 -0.118316
99.01020050 12.19129944 27.96999931 -0.940844 0.332753 -0.063941
99.26869965 12.19129944 27.97760010 0.539085 0.842064 0.017742
99.23179626 12.20449829 27.97529984 0.477837 0.867078 0.140882
99.01129913 12.21929932 27.97069931 -0.894193 0.446426 0.033515
99.20279694 12.21459961 27.97800064 0.358820 0.891840 -0.275443
99.22979736 12.22820282 27.97699928 0.088992 0.990464 -0.105172
99.24600220 12.22310257 27.97515106 0.714896 0.697841 -0.044059
99.04740143 12.23880005 27.97570038 0.165958 0.979767 0.111868
99.06500244 12.23930359 27.97279930 -0.414926 0.909696 0.017016
99.08570099 12.23829651 27.97500038 -0.100359 0.983030 0.153561
99.15689850 12.23269653 27.97550011 0.127313 0.983341 -0.129738
99.02909851 12.24720001 27.97150040 -0.979494 -0.175304 0.099298
99.09919739 12.24330139 27.96999931 -0.267509 0.955388 -0.125189
99.11419678 12.24939728 27.97699928 -0.172982 0.431728 -0.885261
99.13410187 12.24060059 27.97330093 0.163486 0.982129 0.093248
99.19609833 12.24939728 27.97660065 0.359280 0.932572 -0.035020
99.08409882 12.25389862 27.97780037 -0.071411 0.979179 -0.190026
99.15699768 12.25299835 27.97730064 0.140157 0.973526 0.180563
99.19259644 12.25299835 27.97349930 0.407397 0.913040 -0.019649
99.10790253 12.26670074 27.97480011 -0.388893 0.911162 0.136183
99.11509705 12.26300049 27.97690010 -0.068738 0.980424 0.184508
99.12120056 12.27749634 27.97480011 0.037464 0.972845 0.228407
99.14939880 12.27050018 27.96999931 0.179361 0.982330 0.053452
99.10980225 11.95500183 27.98609924 0.126274 -0.935517 -0.329943
99.14360046 11.95400238 27.98629951 -0.095636 -0.993491 0.061882
99.22219849 11.95909882 27.98769951 0.290701 -0.856721 0.426054
99.08450317 11.96859741 27.98780060 -0.197560 -0.891217 -0.408292
99.17890167 11.96929932 27.98240089 -0.082602 -0.877822 0.471812
99.23429871 11.96440125 27.98780060 0.241716 -0.875282 0.418874
99.03659821 11.97119904 27.98240089 -0.017938 -0.972263 -0.233200
99.05280304 11.97560120 27.98850060 -0.434322 -0.892695 -0.120252
99.18979645 11.97270203 27.98640060 -0.468285 -0.708260 0.528278
