102.29190063 8.37069702 27.94650078 -0.692674 -0.596790 -0.405024
102.44149780 8.37229919 27.94239998 0.390168 -0.804420 0.447970
102.47360229 8.37020111 27.94070053 0.309489 -0.922763 0.229621
102.27359772 8.38629913 27.94720078 -0.470797 -0.514051 -0.717009
102.29049683 8.38410187 27.94840050 -0.802728 -0.580160 -0.137992
102.49330139 8.38400269 27.94370079 0.719225 -0.690166 -0.079914
102.28910065 8.39739990 27.94420052 -0.829821 -0.540932 0.137075
102.49169922 8.39019775 27.94960022 0.906509 -0.418907 -0.052532
102.50270081 8.39710236 27.94359970 0.822539 -0.565760 0.057846
102.22989655 8.40830231 27.94869995 -0.901400 -0.422315 0.095540
102.25039673 8.40229797 27.94190025 -0.634589 -0.641251 0.431387
102.52179718 8.40809631 27.94359970 0.768453 -0.612624 0.184857
102.27020264 8.41020203 27.94400024 -0.780894 -0.617417 -0.094875
102.52140045 8.42919922 27.94039917 0.794869 -0.594308 0.122401
102.21600342 8.43029785 27.94840050 -0.971110 -0.190138 0.144199
102.23190308 8.43319702 27.94249916 -0.745937 -0.662254 -0.070698
102.24739838 8.43119812 27.94359970 -0.756917 -0.651829 0.046864
102.52839661 8.43129730 27.94639969 0.930450 -0.366309 0.008934
102.52559662 8.44499969 27.94919968 0.951748 -0.028917 -0.305515
102.19680023 8.45480347 27.94799995 -0.007983 -0.984219 0.176772
102.19110107 8.46690369 27.94569969 -0.939466 0.089030 -0.330873
102.21640015 8.46130371 27.94109917 -0.584646 -0.793125 -0.170711
102.52590179 8.47239685 27.94190025 0.969985 -0.065657 -0.234134
102.22329712 8.50250244 27.94869995 -0.884940 0.463540 -0.044859
102.54270172 8.50559998 27.94269943 0.539830 0.654186 -0.529740
102.21640015 8.51709747 27.94549942 -0.930500 -0.294212 0.218196
102.53269958 8.51950073 27.94949913 0.872638 0.174528 -0.456118
102.19930267 8.52159882 27.94639969 -0.961495 -0.180692 -0.207071
102.22280121 8.52940369 27.94140053 -0.950386 0.311013 0.006195
102.19789886 8.53489685 27.94219971 -0.981350 0.190656 0.024563
102.52580261 8.53399658 27.94230080 0.981011 0.166955 -0.098710
102.22630310 8.54239655 27.94729996 -0.814600 0.390562 -0.428821
102.23159790 8.55639648 27.94420052 -0.676502 0.462694 -0.572939
102.24189758 8.55709839 27.94829941 -0.863863 0.337230 -0.374187
102.23470306 8.58329773 27.94790077 -0.975895 -0.203055 0.079991
102.21820068 8.60720062 27.94759941 -0.951489 -0.275466 0.137068
102.23909760 8.60620117 27.94169998 -0.661109 0.750185 0.012526
102.50000000 8.60420227 27.94939995 0.574450 0.800612 0.170375
102.22109985 8.61380005 27.94849968 -0.216087 0.874781 0.433665
102.25730133 8.61660004 27.94070053 -0.380437 0.924655 -0.016765
102.48880005 8.61250305 27.94729996 0.549592 0.820665 0.156388
102.27610016 8.62629700 27.94580078 -0.732534 0.631276 -0.254725
102.28170013 8.62860107 27.94179916 -0.573793 0.792234 -0.207673
102.27500153 8.64099884 27.94560051 -0.448696 0.843051 -0.296543
102.37280273 8.65119934 27.94510078 -0.178062 0.872653 0.454721
102.33270264 8.66950226 27.94569969 0.147000 0.979587 0.137117
102.36810303 8.66600037 27.94689941 -0.347694 0.933844 -0.083926
102.38690186 8.66249847 27.94409943 0.096089 0.962167 0.254955
102.39969635 8.66120148 27.94820023 -0.050399 0.998724 0.003086
102.42980194 8.66970062 27.94729996 0.261115 0.952065 -0.159347
102.48339844 8.66940308 27.94160080 0.720267 0.684771 0.110924
102.33560181 8.67610168 27.94659996 0.364633 0.924557 0.110619
102.46510315 8.67209625 27.94949913 0.077018 0.687353 0.722229
102.35829926 8.32779694 27.95840073 0.075248 -0.938623 0.336637
102.36329651 8.32749939 27.95739937 0.124730 -0.979318 0.159309
102.39289856 8.32379913 27.95960045 0.113355 -0.899841 -0.421232
102.40969849 8.32730103 27.95669937 0.299732 -0.794527 -0.528099
102.45010376 8.33640289 27.95089912 0.285509 -0.922523 -0.259684
102.32330322 8.34940338 27.95890045 -0.366560 -0.909931 -0.194061
102.39170074 8.34069824 27.95149994 -0.174346 -0.963493 0.203186
102.28559875 8.35260010 27.95369911 0.226693 -0.966968 0.116548
102.30149841 8.35559845 27.95770073 -0.124809 -0.990461 0.058397
102.32599640 8.35820007 27.95490074 -0.514490 -0.856563 0.040001
102.38480377 8.35890198 27.95919991 0.001295 -0.910632 0.413217
102.40489960 8.35160065 27.95840073 0.737938 -0.487006 -0.467196
102.44100189 8.35440063 27.95260048 0.452347 -0.772419 -0.445815
102.45069885 8.35230255 27.95969963 0.717307 -0.644145 -0.265610
102.29509735 8.36569977 27.95560074 -0.573723 -0.806193 -0.144548
102.31130219 8.36070251 27.95470047 -0.397170 -0.917053 0.035627
102.41100311 8.36620331 27.95929909 -0.428966 -0.544903 -0.720464
102.46469879 8.36940002 27.95260048 0.198040 -0.958300 -0.206014
102.49299622 8.36969757 27.95179939 0.701329 -0.712528 0.020998
102.30349731 8.37120056 27.95960045 -0.408652 -0.908875 0.083370
102.40740204 8.37560272 27.95120049 0.838658 -0.445098 0.313911
102.44809723 8.37670135 27.95639992 -0.031993 -0.993978 0.104803
102.45719910 8.37180328 27.95359993 0.325583 -0.929240 -0.174669
102.25270081 8.38020325 27.95120049 -0.639025 -0.758190 0.129592
102.49759674 8.38099670 27.95770073 0.733532 -0.643203 -0.219592
102.26100159 8.39499664 27.95610046 -0.921526 -0.215070 -0.323318
102.27179718 8.39479828 27.95709991 -0.633199 -0.649818 0.420471
102.24559784 8.40429688 27.95989990 -0.662368 -0.629166 -0.406717
102.24590302 8.41500092 27.95280075 -0.415934 -0.827123 -0.377978
102.27140045 8.41220093 27.95089912 -0.590193 -0.766464 -0.253389
102.50440216 8.41500092 27.95439911 0.739036 -0.669616 0.073759
102.24449921 8.43199921 27.95660019 -0.811614 -0.405006 0.421015
102.54309845 8.43609619 27.95240021 0.648993 -0.727185 -0.223629
102.22669983 8.44319916 27.95630074 -0.841077 -0.527307 -0.120569
102.23539734 8.44629669 27.95639992 -0.848423 -0.183403 0.496529
102.53299713 8.45570374 27.95219994 0.844489 0.269190 -0.463007
102.55200195 8.45010376 27.95730019 0.572944 0.266742 -0.774973
102.52680206 8.46360016 27.95800018 0.795962 0.414934 -0.440766
102.21549988 8.47750092 27.95089912 -0.995076 0.087055 -0.047385
102.22869873 8.47170258 27.95509911 -0.740329 -0.453431 0.496300
102.53459930 8.47930145 27.95890045 0.968019 -0.110667 -0.225150
102.20159912 8.48999786 27.95369911 -0.893708 0.366079 -0.259368
102.19815063 8.49549866 27.95515060 -0.939801 -0.111275 -0.323098
102.52739716 8.49600220 27.95269966 0.929641 -0.270261 -0.250451
102.54830170 8.50229645 27.95879936 0.946270 -0.016337 0.322963
102.21369934 8.51200104 27.95949936 -0.991865 0.034822 0.122439
102.22480011 8.51309967 27.95759964 -0.826211 -0.413898 -0.382182
102.53980255 8.52880096 27.95549965 0.850044 0.222739 -0.477297
102.21199799 8.53700256 27.95829964 -0.989813 0.140758 -0.021395
102.22350311 8.54309845 27.95730019 -0.887302 0.386237 -0.252024
102.53900146 8.54489899 27.95030022 0.828495 0.302268 -0.471412
102.52429962 8.55680084 27.95210075 0.957867 -0.023544 -0.286245
102.19509888 8.56850052 27.95170021 -0.244199 -0.968119 0.055782
102.21179962 8.56529999 27.95700073 -0.659445 -0.395006 0.639612
102.24279785 8.57430267 27.95009995 -0.927921 -0.352253 0.121987
102.51670074 8.59480286 27.95459938 0.507538 0.861319 0.023132
102.26249695 8.60469818 27.95490074 -0.084955 0.923718 0.373533
102.24470520 8.61590195 27.95615005 -0.607133 0.794158 0.026518
102.50229645 8.62110138 27.95529938 0.875387 0.478619 0.067978
102.25530243 8.63880157 27.95310020 -0.626334 0.777567 -0.055642
102.29260254 8.64869690 27.95159912 -0.727862 0.677664 -0.104824
102.35489655 8.64579773 27.95809937 -0.220348 0.867900 0.445192
102.34649658 8.65709686 27.95590019 0.134282 0.816019 0.562212
102.27929688 8.66760254 27.95439911 -0.608633 0.791081 -0.061291
102.30760193 8.66419983 27.95159912 -0.246562 0.967662 0.053277
102.32309723 8.66590118 27.95859909 -0.251646 0.888949 0.382680
102.33200073 8.66320038 27.95569992 0.333871 0.883776 0.327828
102.37229919 8.66880035 27.95890045 -0.608182 0.744746 -0.274714
102.38480377 8.66960144 27.95499992 0.188589 0.977459 -0.094911
102.41799927 8.66580200 27.95229912 0.150000 0.974369 0.167647
102.47429657 8.66490173 27.95059967 -0.006181 0.950625 0.310282
102.37000275 8.67790222 27.95179939 0.122711 0.982901 -0.137290
102.42430115 8.67469788 27.95919991 0.536056 0.797009 0.278246
102.40910339 8.32820129 27.96170044 0.239413 -0.758922 -0.605573
102.42459869 8.32990265 27.96680069 0.387154 -0.921609 0.027375
102.33989716 8.33640289 27.96820068 -0.560002 -0.825042 0.075522
102.37619781 8.33699799 27.96640015 -0.042699 -0.998749 0.026036
102.28520203 8.34770203 27.96369934 -0.466911 -0.681121 0.563975
102.33229828 8.34459686 27.96599960 -0.400228 -0.909861 0.109405
102.39969635 8.34480286 27.96349907 0.235546 -0.966376 0.103131
102.41770172 8.34079742 27.96059990 0.227525 -0.963405 -0.141715
102.42610168 8.34619904 27.96059990 0.118115 -0.932698 -0.340768
102.34819794 8.35119629 27.96710014 -0.549044 -0.791316 0.269016
102.46060181 8.35160065 27.96479988 0.535530 -0.721224 -0.439367
102.27339935 8.36990356 27.96540070 -0.257260 -0.291753 0.921248
102.48370361 8.36750031 27.96479988 0.409715 -0.877960 -0.247630
102.24860382 8.37539673 27.96319962 -0.480927 -0.874539 0.062368
102.28230286 8.37079620 27.96339989 -0.646840 -0.673041 0.358628
102.45700073 8.37779999 27.96750069 -0.212870 -0.918629 0.332878
102.46399689 8.37039948 27.96559906 0.423024 -0.880187 -0.215223
102.27799988 8.38700104 27.96330070 -0.656294 -0.716101 0.237651
102.48619843 8.38210297 27.96159935 0.740466 -0.663917 0.104519
102.50000000 8.39209747 27.96559906 0.804697 -0.580268 -0.125503
102.29109955 8.40360260 27.96520042 -0.874867 -0.483940 0.020220
102.24269867 8.41439819 27.96669960 -0.941051 -0.311883 -0.130964
102.52320099 8.41159821 27.96159935 0.964845 -0.252847 0.071703
102.23580170 8.42890167 27.96549988 -0.707968 -0.585848 0.394416
102.26409912 8.42549896 27.96179962 -0.715109 -0.698116 0.035401
102.21170044 8.43129730 27.96339989 -0.684194 -0.719814 0.117248
102.20919800 8.45580292 27.96610069 -0.992496 -0.062243 0.105248
102.20690155 8.46499634 27.96199989 -0.878214 0.225145 0.421960
102.54830170 8.46330261 27.96820068 0.883854 0.426536 -0.192015
102.21540070 8.47760010 27.96590042 -0.841347 -0.332480 0.426137
102.20880127 8.50659943 27.96859932 -0.765047 -0.614797 -0.191645
102.21479797 8.50090027 27.96369934 -0.970853 0.239437 0.010721
102.23580170 8.50720215 27.96470070 -0.931571 -0.360312 -0.048478
102.19699860 8.52149963 27.96229935 -0.999016 0.013403 -0.042270
102.21430206 8.54450226 27.96220016 -0.750255 0.658795 0.055733
102.53610229 8.54570007 27.96929932 0.889296 0.457238 -0.009277
102.22010040 8.55770111 27.96910095 -0.841199 0.479591 -0.249755
102.52169800 8.55899811 27.96899986 0.853914 0.167231 0.492813
102.24009705 8.56919861 27.96010017 -0.847210 0.235759 -0.476080
102.53720093 8.56639862 27.95999908 0.949432 0.092979 0.299890
102.53549957 8.58190155 27.96089935 0.974656 0.139596 0.174809
102.22650146 8.59619904 27.96980095 -0.871255 -0.001330 0.490829
102.23339844 8.59459686 27.96179962 -0.985902 -0.081862 0.145928
102.50589752 8.59870148 27.96949959 0.821108 0.540877 0.182301
102.22979736 8.61129761 27.96859932 -0.613976 0.773881 0.155380
102.25769806 8.61599731 27.96269989 -0.687475 0.726206 0.001383
102.24870300 8.62090302 27.96159935 -0.674072 0.734956 -0.073931
102.27120209 8.63770294 27.96559906 -0.618111 0.786061 0.006883
102.48780060 8.63459778 27.96699905 0.481812 -0.025643 0.875899
102.28929901 8.64450073 27.96870041 -0.464028 0.787392 0.405822
102.30690002 8.64489746 27.96179962 -0.242292 0.962691 0.120498
102.33350372 8.64779663 27.96789932 0.043401 0.963511 0.264128
102.45619965 8.64880371 27.96069908 0.023745 0.780785 0.624349
102.29570007 8.65689850 27.96960068 0.049538 0.953916 0.295955
102.48165131 8.65439987 27.96525002 -0.055828 0.725760 0.685679
102.38159943 8.66169739 27.96109962 0.143285 0.989666 -0.005554
102.45310211 8.66110229 27.96150017 -0.096757 0.884838 0.455741
102.35900116 8.67109680 27.96680069 -0.663451 0.569393 -0.485411
102.36319733 8.67379761 27.96680069 -0.546909 0.725356 -0.418030
102.40799713 8.67040253 27.96910095 -0.152130 0.988283 -0.012396
102.38220215 8.31839752 27.97859955 -0.636551 -0.646523 -0.420489
102.39330292 8.31950378 27.97570038 0.210886 -0.958934 -0.189665
102.36039734 8.33769989 27.97430038 -0.175006 -0.981241 0.080865
102.40299988 8.33399963 27.97260094 0.457502 -0.879149 -0.133378
102.43240356 8.33260345 27.97179985 0.224097 -0.931623 0.286111
102.36070251 8.34269714 27.97920036 -0.112545 -0.931545 0.345770
102.44270325 8.34619904 27.97470093 0.323914 -0.939486 0.111556
102.45480347 8.34210205 27.97279930 0.150913 -0.988312 -0.021559
102.47650146 8.34529877 27.97699928 0.455720 -0.888176 0.058847
102.30750275 8.35739899 27.97470093 -0.636181 -0.763122 -0.113657
102.43540192 8.35579681 27.97660065 0.622315 -0.598704 0.504260
102.45210266 8.35939789 27.97470093 0.612638 -0.652702 -0.445707
102.47440338 8.35220337 27.97290039 0.554795 -0.782403 -0.282929
102.29879761 8.36730194 27.97960091 -0.741943 -0.576345 0.342560
102.32319641 8.36260223 27.97480011 -0.118308 -0.985904 -0.118308
102.37570190 8.36759949 27.97109985 -0.684918 -0.727459 0.041123
102.29540253 8.37449646 27.97450066 -0.782308 -0.584802 0.214479
102.48490143 8.37670135 27.97570038 0.531543 -0.846328 0.034516
102.26370239 8.38150024 27.97120094 -0.201192 -0.951949 0.230898
102.28939819 8.38020325 27.97540092 -0.637947 -0.750615 0.172048
102.43009949 8.38089752 27.97629929 0.689277 -0.290814 0.663570
102.23359680 8.39330292 27.97489929 -0.918779 -0.388766 -0.068606
102.28669739 8.39749908 27.97820091 -0.316965 -0.940106 0.125437
102.50589752 8.39959717 27.97660065 0.274458 -0.913408 -0.300597
102.51799774 8.39179993 27.97170067 0.605541 -0.756533 -0.246935
102.22889709 8.40440369 27.97179985 -0.971267 -0.208399 -0.114935
102.23870087 8.40959930 27.97879982 -0.820194 -0.406115 -0.402930
102.25189972 8.40370178 27.97690010 -0.873043 -0.457726 0.168174
102.48840332 8.40850067 27.97139931 0.902653 -0.424697 0.069645
102.26049805 8.41629791 27.97080040 -0.767901 -0.566746 -0.298540
102.50720215 8.42179871 27.97540092 0.390384 -0.597931 0.700056
102.52790070 8.43019867 27.97340012 0.876158 -0.438818 0.199463
102.54669952 8.43979645 27.97240067 0.832772 -0.443832 0.330913
102.24800110 8.44509888 27.97150040 -0.923055 -0.264752 -0.279063
102.22589874 8.45010376 27.97830009 -0.786214 -0.587752 0.190829
102.52850342 8.45909882 27.97509956 0.951603 -0.288245 -0.106611
102.19719696 8.46720123 27.97190094 -0.534504 -0.778481 0.329049
102.21800232 8.46620178 27.96999931 -0.231108 -0.966566 -0.111085
102.23960114 8.46949768 27.97520065 -0.459343 -0.689850 -0.559563
102.24479675 8.46330261 27.97730064 -0.591010 -0.664677 -0.457070
102.18659973 8.48190308 27.97669983 -0.859704 0.450321 0.241081
102.19349670 8.48979950 27.97360039 -0.842115 0.484484 0.236893
102.20989990 8.49559784 27.97870064 -0.919666 0.248986 0.303677
102.22350311 8.49469757 27.97380066 -0.969723 0.060685 -0.236548
102.52809906 8.49320221 27.97570038 0.956069 -0.291195 -0.033744
102.20449829 8.50039673 27.97360039 -0.884314 0.341975 0.317871
102.54679871 8.51219940 27.97270012 0.969615 -0.243312 -0.025421
102.19210052 8.52919769 27.97319984 -0.873458 0.466325 0.140042
102.21279907 8.52819824 27.97139931 -0.986558 0.105660 -0.124655
102.22049713 8.52369690 27.97450066 -0.949658 -0.073848 -0.304461
102.20220184 8.53559875 27.97019958 -0.822961 0.552076 0.133970
102.54930115 8.53990173 27.97039986 0.978450 0.027212 -0.204682
102.54579926 8.55660248 27.97120094 0.626435 0.766972 -0.139042
102.22840118 8.57260132 27.97299957 -0.860550 0.491950 0.132057
102.51280212 8.57479858 27.97780037 0.923326 0.301116 -0.238324
102.21724701 8.58269882 27.97679901 -0.859118 0.486099 0.160075
102.23850250 8.58850098 27.97190094 -0.835105 -0.293920 0.464984
102.25250244 8.59629822 27.97990036 -0.832078 -0.463653 -0.304419
102.52230072 8.59149933 27.97470093 0.825244 0.527366 0.202132
102.23770142 8.60820007 27.97970009 -0.891964 0.439661 0.105350
102.48909760 8.60829926 27.97430038 0.901080 0.432572 -0.030613
102.50579834 8.61190033 27.97839928 0.878157 0.445654 -0.173878
102.24629974 8.62079620 27.97960091 -0.628547 0.777741 0.006907
102.29239655 8.63590240 27.97579956 -0.318198 0.885222 0.339310
102.33319855 8.63700104 27.97400093 -0.069105 0.909208 -0.410566
102.35320282 8.63909912 27.97610092 -0.616777 0.748607 0.243258
102.46230316 8.63610077 27.97789955 0.421649 0.874809 0.238584
102.28430176 8.64489746 27.97060013 -0.176954 0.800074 0.573210
102.31890106 8.64099884 27.97990036 -0.292331 0.861688 -0.414773
102.44889832 8.64900208 27.97260094 0.606358 0.764538 0.218661
102.48310089 8.64009857 27.97890091 -0.091554 0.985696 0.141493
102.49900055 8.64669800 27.97900009 -0.145179 0.852010 0.502994
102.39859772 8.65730286 27.97520065 -0.080884 0.988194 0.130118
102.43289948 8.65190125 27.97150040 0.460339 0.862199 0.211426
102.27529907 8.66290283 27.97139931 -0.757988 0.182223 0.626297
102.33640289 8.32140350 27.98629951 -0.322050 -0.942296 -0.091446
102.31230164 8.33679962 27.98100090 -0.612503 -0.639353 -0.464831
102.33860016 8.33460236 27.98419952 -0.162067 -0.874577 -0.457000
102.31340027 8.34524918 27.98690033 -0.595391 -0.803435 -0.001369
102.33689880 8.34660339 27.98200035 -0.270168 -0.961296 0.054034
102.37259674 8.34089661 27.98929977 -0.158613 -0.987050 0.023963
102.43789673 8.34449768 27.98170090 0.352023 -0.895654 0.271815
102.45220184 8.34059906 27.98780060 0.235598 -0.957036 0.169045
102.38420105 8.35420227 27.98530006 0.415362 -0.909655 -0.001294
102.40640259 8.35289764 27.98040009 -0.276367 -0.960469 0.033462
102.33909607 8.36930084 27.98380089 -0.174626 -0.981518 0.078281
102.34159851 8.36150360 27.98690033 -0.531976 -0.846511 0.020513
102.46520233 8.36669922 27.98570061 -0.176720 -0.968734 0.174140
102.47070313 8.36550140 27.98870087 0.358463 -0.933523 -0.006333
102.49340057 8.36340332 27.98889923 0.720620 -0.651541 -0.237067
102.42510223 8.38860321 27.98819923 -0.927786 0.095885 0.360581
102.43699646 8.38310242 27.98430061 0.793490 -0.129035 0.594747
102.50119781 8.38839722 27.98670006 0.508722 -0.724142 -0.465638
102.25679779 8.39040375 27.98609924 -0.874736 -0.068143 0.479784
102.30670166 8.39019775 27.98839951 -0.793876 -0.204227 0.572758
102.51909637 8.39749908 27.98469925 0.793251 -0.515533 -0.324004
102.52449799 8.39270020 27.98880005 0.101642 -0.972499 0.209558
102.25980377 8.40059662 27.98100090 -0.545914 -0.837434 -0.026127
102.22519684 8.43070221 27.98150063 -0.889908 -0.120258 0.440002
102.24770355 8.43080139 27.98360062 -0.885976 -0.399209 -0.235963
102.23290253 8.44280243 27.98839951 -0.889588 -0.413388 -0.194278
102.53569794 8.44960022 27.98220062 0.820418 -0.192593 0.538352
102.21640015 8.46309662 27.98310089 -0.523472 -0.850119 -0.057233
102.55020142 8.46589661 27.98320007 0.892521 -0.111038 0.437124
102.21455383 8.47259903 27.98545074 -0.984878 -0.116362 0.128358
102.53479767 8.47149658 27.97999954 0.963951 0.259477 -0.058915
102.22209930 8.49880219 27.98970032 -0.992579 0.111538 0.048446
102.53880310 8.50610352 27.98570061 0.710268 -0.517315 0.477393
102.19640350 8.51679993 27.98439980 -0.814592 -0.055059 0.577415
102.21459961 8.51059723 27.98859978 -0.997192 0.022397 0.071457
102.53420258 8.51139832 27.98159981 0.710268 -0.517315 0.477393
102.54419708 8.52380371 27.98649979 0.891798 0.162800 0.422128
102.21630096 8.53780365 27.98929977 -0.894373 0.371054 0.249833
102.21240234 8.54000092 27.98430061 -0.889931 0.392399 0.232478
102.22630310 8.55359650 27.98320007 -0.832947 0.530057 -0.158869
102.23419952 8.55979919 27.98419952 -0.670312 0.727552 0.146113
102.21099854 8.56639862 27.98699951 -0.674522 -0.628344 -0.387561
102.52449799 8.56210327 27.98100090 0.549982 0.063623 0.832749
102.20030212 8.57019806 27.98390007 -0.883236 -0.423186 -0.202009
102.25370026 8.57939911 27.98810005 -0.911339 0.396896 0.109250
102.52140045 8.57800293 27.98480034 0.857920 -0.116792 0.500333
102.25920105 8.58760071 27.98209953 -0.647124 -0.739350 0.185990
102.24739838 8.59680176 27.98990059 -0.730306 -0.448782 0.515023
102.22850037 8.60600281 27.98570061 -0.871016 0.184225 0.455404
102.51760101 8.62310028 27.98830032 0.820140 0.439417 -0.366446
102.26679993 8.63150024 27.98159981 -0.548079 0.836399 0.006800
102.47419739 8.63919830 27.98390007 -0.414934 0.795962 -0.440766
102.28919983 8.64469910 27.98369980 -0.626945 0.737490 0.251094
102.30650330 8.65575027 27.98765182 -0.718104 0.691991 0.073987
102.31990051 8.65229797 27.98080063 0.286741 0.904338 -0.316151
102.35569763 8.65205002 27.98400116 -0.511002 0.847765 0.142026
102.38580322 8.65879822 27.98509979 0.167905 0.982065 -0.085765
102.46119690 8.65950012 27.98660088 0.333118 0.937814 -0.097661
102.29470062 8.66950226 27.98439980 -0.530691 0.040183 0.846612
102.33429718 8.66149902 27.98080063 -0.479691 0.874567 -0.070911
102.36150360 8.66339874 27.98089981 -0.384009 0.027336 -0.922924
102.37100220 8.66709900 27.98489952 0.357881 0.908468 0.215888
102.42359924 8.66269684 27.98430061 0.451484 0.890692 0.053196
102.35130310 8.67009735 27.98780060 -0.217742 0.863458 0.455005
102.34629822 8.68350220 27.98559952 -0.639409 0.416861 -0.646052
102.36499786 8.68579865 27.98069954 0.741115 0.575702 0.345421
102.35240173 8.32230377 27.99939919 -0.095417 -0.975239 0.199509
102.36740112 8.33409882 27.99239922 0.500502 -0.859028 0.107558
102.41149902 8.33370209 27.99069977 0.395455 -0.903693 0.164178
102.41989899 8.34850311 27.99060059 0.459041 -0.831913 0.311772
102.30490112 8.35590363 27.99270058 -0.799412 -0.598498 0.052351
102.31819916 8.35369873 27.99090004 -0.406005 -0.907621 -0.106697
102.34120178 8.35299683 27.99200058 -0.656236 -0.754181 0.023787
102.38529968 8.35620117 27.99230003 0.435570 -0.847889 -0.302264
102.45510101 8.35089874 27.99279976 0.267880 -0.916584 0.296840
102.46910095 8.35870361 27.99979973 0.402368 -0.888748 0.219608
102.47879791 8.35659790 27.99790001 -0.079865 -0.919124 0.385788
102.29769897 8.36910248 27.99259949 -0.720800 -0.693130 -0.004150
102.24089813 8.37449646 27.99810028 -0.819284 -0.562254 0.112451
102.46520233 8.37039948 27.99760056 0.482052 -0.576111 -0.660092
102.23010254 8.38770294 27.99489975 -0.872230 -0.476667 0.109562
102.25189972 8.38140106 27.99010086 0.136864 -0.874488 -0.465337
102.27149963 8.38220215 27.99830055 -0.353299 -0.923045 -0.152212
102.29209900 8.38339996 27.99640083 -0.442723 -0.892385 -0.087434
102.44329834 8.38249969 27.99139977 -0.487151 -0.800206 -0.349791
102.48670197 8.38880157 27.99060059 0.759601 -0.649267 -0.038192
102.50910187 8.38529968 27.99869919 0.777374 -0.360404 -0.515556
102.24720001 8.39990234 27.99390030 -0.787511 0.359131 0.500851
102.27020264 8.39910126 27.99710083 -0.483080 -0.797644 -0.361106
102.43730164 8.40119934 27.99609947 -0.264028 -0.444116 0.856183
102.48860168 8.40080261 27.99950027 0.672959 -0.613140 -0.413745
102.23840332 8.41560364 27.99270058 -0.829200 -0.377483 0.412231
102.25350189 8.41799927 27.99080086 -0.869881 -0.488525 0.068199
102.52629852 8.42720032 27.99839973 0.196037 -0.486351 -0.851488
102.53459930 8.42530060 27.99550056 0.793702 -0.418674 -0.441305
102.19940186 8.43579865 27.99819946 -0.208857 0.295765 0.932149
102.23809814 8.43090057 27.99950027 -0.752866 -0.654979 -0.064778
102.29260254 8.43470001 27.99390030 -0.330259 -0.552580 0.765235
102.50039673 8.43800354 27.99810028 -0.193475 -0.799797 0.568237
102.51260376 8.43370056 27.99130058 0.901231 -0.171047 0.398152
102.23809814 8.44029999 27.99239922 -0.858156 -0.448064 -0.250612
102.28420258 8.44599915 27.99670029 -0.330259 -0.552580 0.765235
102.51730347 8.44860077 27.99110031 0.758008 -0.492787 0.427300
102.21839905 8.45629883 27.99920082 -0.792861 -0.599409 -0.109916
102.22429657 8.45999908 27.99819946 -0.828484 -0.549905 -0.105918
102.19560242 8.46779633 27.99790001 -0.652378 -0.755611 0.058786
102.20529938 8.47869873 27.99580002 -0.905706 -0.286244 0.312667
102.21099854 8.48829651 27.99580002 -0.991095 0.132368 0.014460
102.54489899 8.50769806 27.99169922 0.867137 -0.494115 0.062634
102.20870209 8.52359772 27.99440002 -0.901778 -0.273042 0.335030
102.22450256 8.52300262 27.99449921 -0.957525 0.251564 0.140929
102.53359985 8.52179718 27.99150085 0.622628 0.760310 -0.185106
102.23249817 8.54940033 27.99629974 -0.479548 0.085784 0.873312
102.21379852 8.55650330 27.99810028 -0.806037 -0.006866 -0.591826
102.23020172 8.55860138 27.99320030 -0.868498 0.416818 0.268279
102.22599792 8.56900024 27.99699974 0.043967 0.912653 0.406364
102.23570251 8.56680298 27.99110031 -0.607142 0.695992 0.383372
102.24629974 8.58540344 27.99099922 -0.981448 0.159714 0.106070
102.51509857 8.59549713 27.99760056 0.806776 0.514261 -0.290943
102.24440002 8.61270142 27.99370003 -0.901631 0.047171 0.429926
102.26480103 8.61979675 27.99979973 -0.439957 0.875469 0.199980
102.49600220 8.61060333 27.99329948 0.712021 0.566643 -0.414657
102.25740051 8.62570190 27.99460030 -0.412486 0.817008 0.402930
102.27519989 8.62760162 27.99069977 -0.544455 0.800302 0.251167
102.29669952 8.63300323 27.99580002 -0.520844 0.831841 -0.191731
102.46219635 8.63179779 27.99889946 0.057285 0.848094 -0.526740
102.50119781 8.63410187 27.99609947 0.821621 0.547250 0.159552
102.33719635 8.64939880 27.99889946 -0.177442 0.949517 -0.258713
102.43949890 8.64340210 27.99659920 0.268494 0.894486 0.357498
102.33550262 8.65769958 27.99379921 -0.569505 0.758805 -0.316035
102.31400299 8.66539764 27.99360085 0.232901 0.949310 -0.211109
102.39350128 8.66149902 27.99410057 -0.055177 0.998385 0.013534
102.42530060 8.66750336 27.99729919 0.763281 0.406974 0.501771
102.44129944 8.66470337 27.99239922 0.164191 0.981497 0.098515
102.47450256 8.66100311 27.99970055 0.319801 0.946661 -0.039497
102.41069794 8.67369843 27.99609947 0.199740 0.967775 0.153349
102.37609863 8.31849670 28.00659943 0.073886 -0.979897 0.185320
102.35019684 8.32569885 28.00740051 -0.133873 -0.953019 0.271723
102.40989685 8.32700348 28.00569916 0.480478 -0.802926 -0.352776
102.33360291 8.33879852 28.00110054 -0.694514 -0.719467 0.004159
102.35019684 8.33509827 28.00329971 0.113790 -0.993180 0.025409
102.39399719 8.33339691 28.00160027 -0.001366 -0.810210 -0.586138
102.35530090 8.34190369 28.00020027 -0.289951 -0.953068 -0.087115
102.36470032 8.34210205 28.00930023 -0.099859 -0.969521 0.223736
102.42890167 8.34739685 28.00359917 0.385435 -0.915925 0.111900
102.43190002 8.34459686 28.00469971 0.363292 -0.849761 0.382002
102.34609985 8.35630035 28.00499916 -0.277726 -0.869601 -0.408242
102.36799622 8.35369873 28.00720024 0.259432 -0.963064 -0.072135
102.41500092 8.35990143 28.00440025 0.042472 -0.872721 -0.486368
102.43990326 8.35800171 28.00860023 -0.589188 -0.360694 0.723020
102.48739624 8.35980225 28.00790024 0.081609 -0.968004 0.237293
102.49150085 8.35890198 28.00889969 0.272890 -0.864407 0.422294
102.27590179 8.36969757 28.00440025 -0.347079 -0.594760 -0.725118
102.29389954 8.36940002 28.00950050 -0.467772 -0.873654 -0.133855
102.32350159 8.36209869 28.00480080 -0.271531 -0.913331 -0.303476
102.39579773 8.36489868 28.00624847 0.277548 -0.956573 -0.089074
102.43340302 8.36450195 28.00149918 -0.957240 0.138253 0.254123
102.45120239 8.36640167 28.00760078 -0.206860 -0.920172 -0.332403
102.25520325 8.37429810 28.00819969 -0.430181 -0.901906 0.038864
102.26999664 8.37529755 28.00029945 -0.087056 -0.930834 -0.354922
102.28220367 8.37480164 28.00440025 -0.186832 -0.850460 -0.491743
102.31539917 8.37470245 28.00460052 -0.734646 -0.567756 -0.371414
102.48030090 8.37660217 28.00670052 0.547520 -0.782399 0.296772
102.50879669 8.37460327 28.00790024 0.687294 -0.674536 -0.269496
102.25749969 8.40419769 28.00790024 -0.829527 -0.551586 -0.087394
102.50640106 8.40619659 28.00049973 0.618115 -0.782370 0.076364
102.25039673 8.41159821 28.00979996 -0.852481 -0.505660 -0.132608
102.50980377 8.41210175 28.00950050 0.764679 -0.326800 -0.555399
102.21379852 8.42259979 28.00749969 -0.072463 -0.984778 -0.157992
102.19809723 8.43039703 28.00930023 -0.739775 0.539658 0.401873
102.24610138 8.43129730 28.00559998 -0.862003 -0.496045 -0.104355
102.21910095 8.44969940 28.00519943 -0.603417 -0.529046 -0.596656
102.29109955 8.44450378 28.00270081 -0.330259 -0.552580 0.765235
102.30049896 8.44460297 28.00279999 -0.330259 -0.552580 0.765235
102.52269745 8.44400024 28.00819969 0.705251 0.035333 -0.708077
102.22850037 8.46279907 28.00620079 -0.795959 -0.601613 -0.067163
102.53469849 8.46700287 28.00410080 0.892650 -0.427044 0.144252
102.53209686 8.48310089 28.00489998 0.920857 0.316500 -0.227708
102.22869873 8.52940369 28.00650024 -0.644675 0.732088 0.220095
102.52799988 8.52680206 28.00939941 0.940398 -0.331052 -0.077817
102.21299744 8.53359985 28.00729942 -0.882479 0.017409 -0.470030
102.23590088 8.53859711 28.00639915 -0.797273 0.462257 0.388167
102.22260284 8.55390167 28.00519943 -0.904979 0.197739 -0.376714
102.20890045 8.56410217 28.00399971 -0.720121 -0.487287 -0.493940
102.24500275 8.56700134 28.00519943 -0.733811 0.482029 -0.478716
102.20549774 8.57510376 28.00979996 0.433076 0.813416 -0.388330
102.24649811 8.59639740 28.00589943 -0.832127 -0.552421 0.048949
102.23729706 8.60710144 28.00370026 -0.934795 0.313439 0.167076
102.24749756 8.60780334 28.00880051 -0.880299 0.468658 0.073706
102.26474762 8.60729980 28.00869942 -0.645603 0.718571 0.258559
102.52269745 8.60399628 28.00359917 0.767485 0.456564 0.450018
102.50759888 8.61100006 28.00440025 0.802066 0.524731 0.285214
102.24289703 8.62619781 28.00659943 -0.147156 0.946390 0.287562
102.50620270 8.62789917 28.00519943 0.705013 0.538343 0.461675
102.27265167 8.63440323 28.00614929 -0.784355 0.619961 0.020898
102.28050232 8.64530182 28.00259972 -0.697122 0.703145 -0.140027
102.37789917 8.64689636 28.00020027 0.049445 0.998373 0.028405
102.41449738 8.64540100 28.00740051 0.524051 0.434781 0.732349
102.43170166 8.64450073 28.00860023 -0.028585 0.958218 0.284607
102.45089722 8.64969635 28.00959969 -0.084329 0.995522 -0.042712
102.48410034 8.64589691 28.00489998 0.619033 0.785217 -0.015233
102.41639709 8.65730286 28.00930023 -0.182280 0.827037 0.531774
102.42910004 8.65589905 28.00440025 0.231612 0.829814 0.507705
102.45500183 8.65809631 28.00259972 -0.124948 0.986495 0.105908
102.33460236 8.66089630 28.00679970 0.003257 0.993475 0.114005
102.37184906 8.66645050 28.00215149 0.318229 0.891936 -0.321217
102.41249847 8.67259979 28.00919914 0.123619 0.842065 0.525018
102.37370300 8.33730316 28.01539993 -0.023827 -0.988261 -0.150906
102.40969849 8.33660126 28.01860046 0.198256 -0.904454 -0.377700
102.28379822 8.34999847 28.01969910 -0.035002 -0.796645 -0.603434
102.32430267 8.34970093 28.01989937 -0.592907 -0.650015 -0.475334
102.33809662 8.34660339 28.01309967 -0.435906 -0.789168 -0.432665
102.30549622 8.35310364 28.01580048 -0.298213 -0.879501 -0.370874
102.31459808 8.35179901 28.01490021 -0.612448 -0.786192 -0.082528
102.38529968 8.35070038 28.01930046 0.078675 -0.893031 -0.443065
102.45189667 8.35040283 28.01969910 0.487299 -0.822610 -0.293006
102.47119904 8.35910034 28.01880074 0.704406 -0.623066 0.340002
102.26129913 8.36280060 28.01040077 -0.469020 -0.877109 -0.103439
102.30419922 8.37010193 28.01860046 -0.448209 -0.828794 -0.334977
102.46959686 8.37100220 28.01059914 0.204341 -0.902869 0.378249
102.25260162 8.38220215 28.01210022 -0.621147 -0.783664 -0.006886
102.26149750 8.38310242 28.01519966 -0.293798 -0.932001 0.212266
102.28919983 8.38420105 28.01239967 -0.195779 -0.916018 0.350116
102.50640106 8.38390350 28.01269913 0.573837 -0.392971 -0.718529
102.52140045 8.38279724 28.01889992 0.892265 -0.413489 -0.181355
102.24259949 8.39600372 28.01689911 -0.745060 -0.363563 0.559203
102.26959991 8.39080048 28.01919937 -0.254673 -0.939369 0.229624
102.52690125 8.39450073 28.01079941 0.990040 -0.032813 0.136908
102.29444885 8.40299988 28.01319885 0.462573 -0.721216 0.515628
102.52639771 8.40840149 28.01259995 0.785044 -0.589165 -0.191287
102.50820160 8.41470337 28.01840019 0.972566 0.176715 0.151288
102.24179840 8.42510223 28.01259995 -0.828604 -0.514253 -0.221266
102.53590393 8.42520142 28.01449966 0.737035 -0.567076 -0.367701
102.54609680 8.42579651 28.01560020 0.821353 -0.489683 -0.292558
102.23519897 8.44110107 28.01939964 -0.761017 -0.583075 -0.284388
102.50789642 8.44300079 28.01309967 0.577728 0.434545 0.690943
102.21829987 8.45639801 28.01519966 -0.712231 -0.573421 -0.404865
102.23010254 8.45089722 28.01029968 -0.806977 -0.566537 -0.166805
102.55400085 8.45809937 28.01530075 0.812694 0.199743 -0.547386
102.20760345 8.46379852 28.01399994 -0.691807 -0.688683 -0.217068
102.21649933 8.47779846 28.01390076 -0.968046 -0.204408 0.145271
102.20680237 8.48469925 28.01479912 -0.980569 0.176187 0.086271
102.19760132 8.50009918 28.01160049 -0.998730 -0.032352 -0.038613
102.53250122 8.50489807 28.01770020 0.963949 -0.260628 0.053622
102.21929932 8.51999664 28.01749992 -0.889306 0.454836 -0.047520
102.20890045 8.52510071 28.01339912 -0.890150 0.197324 -0.410726
102.54530334 8.52020264 28.01560020 0.723954 -0.638411 -0.261384
102.21140289 8.53980255 28.01919937 -0.837496 -0.484057 -0.253554
102.20359802 8.54080200 28.01819992 -0.965194 -0.119525 -0.232623
102.54139709 8.54489899 28.01329994 0.749843 0.133206 -0.648068
102.22480011 8.57089996 28.01399994 -0.314063 0.782766 -0.537255
102.52950287 8.58589935 28.01280022 0.706422 0.608080 0.362226
102.23329926 8.59649658 28.01980019 -0.835152 0.549978 -0.006790
102.24269867 8.59300232 28.01889992 -0.695097 0.707055 -0.130050
102.51719666 8.59590149 28.01059914 0.698875 0.617039 0.361713
102.28269958 8.61959839 28.01090050 -0.733318 0.618287 0.282783
102.49089813 8.62779999 28.01110077 0.850937 0.399800 0.340686
102.27809906 8.63800049 28.01269913 -0.627025 0.773184 -0.095004
102.30100250 8.64669800 28.01269913 -0.488870 0.823113 0.288949
102.32839966 8.64640045 28.01589966 -0.250414 0.942167 -0.222744
102.40360260 8.64569855 28.01239967 0.036784 0.875997 0.480913
102.31430054 8.65750122 28.01169968 -0.101311 0.985696 0.134684
102.34120178 8.65809631 28.01779938 -0.016052 0.996291 -0.084540
102.46450043 8.65249634 28.01969910 0.414773 0.861688 0.292331
102.47679901 8.65550232 28.01169968 0.203467 0.958821 0.198148
102.29019928 8.66000366 28.01449966 -0.370284 0.925037 0.084829
102.32109833 8.66539764 28.01059914 -0.129841 0.988433 0.078373
102.36540222 8.66280365 28.01300049 -0.330860 0.914561 -0.232614
102.38839722 8.66210175 28.01810074 0.132712 0.982556 -0.130277
102.39649963 8.66249847 28.01420021 0.118946 0.988078 0.097748
102.38610077 8.67130280 28.01099968 -0.352087 0.782951 -0.512857
102.43060303 8.67600250 28.01919937 -0.777365 0.339594 0.529509
102.40809631 8.31670380 28.02879906 0.125610 -0.989903 -0.065686
102.33550262 8.32839966 28.02219963 -0.281250 -0.955212 0.092022
102.34729767 8.33950043 28.02219963 -0.284354 -0.947399 0.146894
102.41790009 8.33119965 28.02770042 0.709022 -0.700287 0.082986
102.45079803 8.33910370 28.02790070 0.626635 -0.685845 -0.370060
102.33580017 8.34649658 28.02499962 -0.203186 -0.963493 -0.174346
102.37740326 8.34449768 28.02729988 0.008548 -0.958627 -0.284535
102.45980072 8.34719849 28.02479935 0.054905 -0.823579 -0.564539
102.44059753 8.36820221 28.02350044 -0.746505 -0.557846 0.362681
102.25759888 8.37249756 28.02630043 -0.344493 -0.916265 0.204409
102.27529907 8.37069702 28.02540016 -0.388969 -0.917534 0.082673
102.28600311 8.37989807 28.02140045 -0.338173 -0.937601 -0.080896
102.47949982 8.37409973 28.02969933 0.517260 -0.786299 0.337900
102.25959778 8.38800049 28.02309990 -0.653230 -0.745908 0.130048
102.47699738 8.38539886 28.02149963 0.609742 -0.737772 0.289667
102.49960327 8.39279938 28.02960014 0.442471 -0.896759 -0.006565
102.51580048 8.39710236 28.02169991 0.989922 -0.107928 -0.091681
102.23739624 8.40229797 28.02379990 -0.961375 -0.252312 -0.109982
102.30480194 8.40260315 28.02330017 0.000000 0.000000 0.000000
102.24919891 8.41634750 28.02474976 -0.948923 -0.308561 -0.065844
102.54560089 8.41739655 28.02860069 0.702617 -0.711065 0.026753
102.21230316 8.43609619 28.02630043 -0.939511 0.341987 -0.019070
102.22949982 8.43520355 28.02039909 -0.715102 -0.586877 -0.379744
102.55139923 8.43990326 28.02249908 0.889398 -0.446800 -0.096643
102.22129822 8.44419861 28.02230072 -0.993441 -0.068785 -0.091338
102.55680084 8.45179749 28.02939987 0.914966 0.105943 0.389376
102.19370270 8.46340179 28.02389908 -0.930103 0.029753 -0.366091
102.20739746 8.46980286 28.02490044 -0.717365 -0.055843 -0.694456
102.54599762 8.47810364 28.02599907 0.899060 0.423663 -0.110460
102.52909851 8.48979950 28.02079964 0.824044 0.302934 -0.478730
102.21790314 8.49420166 28.02280045 -0.998411 0.055178 -0.011452
102.19860077 8.50219727 28.02659988 -0.978290 0.207235 0.001158
102.53089905 8.51110077 28.02459908 0.822054 -0.323457 -0.468618
102.23380280 8.52700043 28.02849960 -0.118238 0.990673 -0.067729
102.53980255 8.52870178 28.02849960 0.953554 -0.125642 -0.273767
102.55000305 8.52210236 28.02560043 0.207290 -0.506876 -0.836724
102.57109833 8.52249908 28.02070045 0.000000 0.000000 0.000000
102.20960236 8.53520203 28.02230072 -0.966338 0.092697 -0.239997
102.24140167 8.54479980 28.02639961 -0.982822 0.182607 -0.026751
102.54010010 8.55619812 28.02619934 0.974143 0.203310 0.098537
102.19550323 8.57959747 28.02070045 0.090231 0.834991 -0.542816
102.21620178 8.58809662 28.02980042 -0.274378 0.905301 -0.324265
102.51429749 8.58360291 28.02770042 0.710563 0.598973 0.369230
102.24610138 8.59519958 28.02090073 -0.308760 0.805942 0.505099
102.26730347 8.60289764 28.02799988 -0.662814 0.675778 0.322494
102.24649811 8.61679840 28.02169991 -0.730995 0.667952 0.139594
102.48960114 8.61879730 28.02420044 0.277257 0.949639 -0.145995
102.27249908 8.62629700 28.02370071 -0.855070 0.509616 -0.095642
102.48690033 8.62660217 28.02610016 0.596705 0.765849 0.239622
102.49960327 8.62159729 28.02020073 0.678689 0.726005 0.110897
102.28179932 8.63220215 28.02470016 -0.710821 0.692939 -0.120705
102.27069855 8.64769745 28.02449989 -0.690776 0.705958 -0.156373
102.29859924 8.64299774 28.02969933 -0.387130 0.908977 0.154569
102.31279755 8.64129639 28.02280045 -0.617444 0.723844 0.307916
102.41110229 8.64710236 28.02739906 0.310700 0.945322 -0.099160
102.42310333 8.64869690 28.02050018 -0.742208 0.667844 0.055773
102.47989655 8.64700317 28.02379990 0.853842 0.446082 0.268263
102.33560181 8.65940094 28.02479935 0.434305 0.884589 -0.169946
102.37699890 8.65019989 28.02219963 0.195376 0.958273 0.208667
102.41580200 8.65830231 28.02129936 0.075031 0.842331 0.533712
102.45259857 8.65809631 28.02759933 0.310502 0.949396 -0.047278
102.30570221 8.66159821 28.02059937 -0.422897 0.893101 0.153390
102.36660004 8.67209625 28.02890015 -0.679350 0.572524 -0.459020
102.38430023 8.67040253 28.02899933 0.464203 0.882679 0.073441
102.37280273 8.68659973 28.02079964 -0.377535 0.897564 -0.227696
102.38194275 8.32149887 28.03560066 -0.092613 -0.994200 -0.054675
102.31759644 8.33979797 28.03800011 -0.724890 -0.684215 -0.079898
102.35369873 8.33604813 28.03125000 -0.057935 -0.991706 -0.114733
102.37370300 8.33159637 28.03440094 0.051633 -0.958366 -0.280835
102.38230133 8.33110046 28.03149986 0.107275 -0.990851 0.081898
102.43869781 8.33390045 28.03380013 0.127255 -0.973942 -0.187733
102.30740356 8.34629822 28.03490067 -0.185395 -0.886099 -0.424802
102.41449738 8.34580231 28.03459930 0.231749 -0.852777 0.468043
102.28800201 8.35639954 28.03560066 -0.543587 -0.822119 0.169216
102.31045532 8.36299896 28.03419876 -0.625355 -0.772498 0.110357
102.45510101 8.36209869 28.03459930 0.802088 -0.591088 0.085267
102.51689911 8.36370087 28.03899956 -0.471783 -0.596024 -0.649751
102.29669952 8.37619781 28.03549957 -0.433820 -0.898919 -0.061197
102.28489685 8.38539886 28.03730011 -0.097698 -0.912311 -0.397674
102.47219849 8.38369751 28.03149986 0.623315 -0.778783 -0.070537
102.24510193 8.39199829 28.03400040 -0.878566 -0.477394 0.014710
102.25849915 8.40640259 28.03689957 -0.976722 -0.186927 0.105224
102.51219940 8.40460205 28.03860092 0.685731 -0.727629 0.018156
102.52020264 8.41429901 28.03450012 0.500453 -0.864418 -0.048253
102.54049683 8.41419983 28.03860092 0.194363 -0.908469 -0.370010
102.21530151 8.42389679 28.03249931 -0.659186 -0.734954 0.159114
102.24069977 8.42120361 28.03669930 -0.596220 -0.786407 -0.161508
102.53089905 8.43289948 28.03039932 0.043396 -0.824530 -0.564152
102.54669952 8.43240356 28.03750038 0.835813 -0.508162 0.207816
102.20515442 8.45660019 28.03255081 -0.548304 -0.799933 -0.243863
102.22979736 8.45330048 28.03330040 -0.839317 -0.490748 -0.233908
102.18849945 8.46029663 28.03989983 -0.979586 0.183748 0.081531
102.22190094 8.46379852 28.03510094 -0.946027 -0.192482 -0.260738
102.19989777 8.48529816 28.03870010 -0.906281 0.412448 0.092421
102.22239685 8.48720169 28.03440094 -0.995476 -0.094960 -0.003201
102.53869629 8.50440216 28.03269958 0.937114 -0.117646 -0.328598
102.20379639 8.51629639 28.03639984 -0.943169 0.213418 0.254725
102.53859711 8.51029968 28.03860092 0.701707 -0.325735 -0.633643
102.20050049 8.54019928 28.03219986 -0.998479 -0.036825 0.041033
102.22389984 8.55750275 28.03409958 -0.885998 0.435050 0.160434
102.23719788 8.55889893 28.03420067 -0.761546 -0.273903 -0.587388
102.24400330 8.55370331 28.03429985 -0.889364 -0.001318 -0.457199
102.23069763 8.57839966 28.03100014 -0.219601 0.230513 0.947966
102.21070099 8.58000183 28.03479958 -0.501456 0.548415 0.669166
102.22969818 8.58740234 28.03689957 -0.686249 0.726032 -0.044045
102.23989868 8.58080292 28.03599930 -0.926105 0.214153 0.310593
102.26950073 8.59010315 28.03510094 -0.417024 0.826120 0.378969
102.51119995 8.59590149 28.03059959 0.878190 0.304864 0.368567
102.23909760 8.60050201 28.03879929 -0.741182 0.657331 0.136258
102.24839783 8.60639954 28.03479958 -0.692490 0.720698 0.032438
102.50700378 8.61930084 28.03429985 0.673252 0.446050 -0.589722
102.26159668 8.62300110 28.03170013 -0.813519 0.491271 -0.311191
102.29489899 8.62650299 28.03190041 -0.526405 0.843690 -0.105281
102.26589966 8.63289642 28.03459930 -0.826246 0.562403 -0.031939
102.47389984 8.63030243 28.03499985 0.616179 0.782241 -0.091771
102.36150360 8.64289856 28.03409958 -0.527741 -0.048736 -0.848006
102.30599976 8.65370178 28.03414917 -0.497128 0.854943 0.148112
102.36519623 8.65940094 28.03100014 -0.339728 0.923328 -0.179027
102.43530273 8.65550232 28.03050041 -0.010665 0.972878 -0.231073
102.32839966 8.66320038 28.03269958 -0.009460 0.997472 0.070422
102.34059906 8.66280365 28.03980064 0.252634 0.906853 0.337332
102.35250092 8.66079712 28.03590012 -0.231798 0.934215 0.271133
102.45179749 8.66130066 28.03650093 0.425027 0.635040 0.645040
102.44879913 8.67720032 28.03930092 -0.952632 -0.296974 0.065566
102.36019897 8.32319641 28.04840088 -0.246242 -0.842729 -0.478719
102.31960297 8.33280182 28.04310036 -0.451923 -0.876058 -0.168191
102.36209869 8.33869934 28.04730034 -0.187014 -0.968605 -0.163799
102.38619995 8.33619690 28.04549980 0.160821 -0.973793 0.160821
102.39949799 8.33399963 28.04960060 -0.049723 -0.907111 0.417943
102.43800354 8.33129883 28.04890060 0.731304 -0.550532 0.402628
102.44619751 8.33879852 28.04479980 0.665629 -0.619151 0.416641
102.34870148 8.34310150 28.04220009 -0.296473 -0.945762 0.132809
102.35919952 8.34140015 28.04220009 -0.335416 -0.885921 -0.320375
102.39360046 8.34329987 28.04540062 0.458897 -0.872345 -0.168604
102.42350006 8.35399628 28.04450035 -0.066541 -0.833890 0.547904
102.46119690 8.35070038 28.04080009 0.651815 -0.723718 0.226650
102.27469635 8.36239624 28.04949951 -0.850403 -0.433690 -0.297873
102.31860352 8.36419678 28.04280090 -0.502985 -0.842313 0.193687
102.34549713 8.36479950 28.04290009 -0.233632 -0.741665 0.628768
102.26760101 8.37920380 28.04630089 -0.531080 -0.847295 0.006757
102.35479736 8.37429810 28.04890060 0.558352 -0.779795 -0.283130
102.46340179 8.37699890 28.04249954 0.840818 -0.517540 0.158673
102.49440002 8.37490082 28.04524994 0.619433 0.722404 -0.307303
102.24849701 8.38120270 28.04509926 -0.945049 -0.153215 -0.288803
102.28089905 8.38050079 28.04030037 0.159033 -0.758817 -0.631590
102.47650146 8.38059998 28.04059982 0.541066 -0.839004 -0.057620
102.49369812 8.39279938 28.04459953 0.551057 -0.827312 0.109048
102.52169800 8.40840149 28.04960060 0.292754 -0.936537 0.192857
102.21659851 8.42369843 28.04350090 -0.448754 -0.893537 -0.014561
102.22669983 8.42659760 28.04350090 -0.774961 0.222083 0.591704
102.23680115 8.42369843 28.04960060 -0.253365 -0.843014 -0.474483
102.25050354 8.42639923 28.04470062 -0.628768 -0.741665 0.233632
102.21759796 8.43520355 28.04940033 -0.880039 -0.381904 0.282277
102.19799805 8.44740295 28.04109955 -0.744990 -0.594390 0.302803
102.21900177 8.44419861 28.04529953 -0.758570 -0.517133 0.396414
102.54229736 8.46530151 28.04310036 0.921636 0.221479 0.318643
102.53500366 8.47489929 28.04899979 0.990760 -0.014488 0.134850
102.21089935 8.49960327 28.04870033 -0.896759 0.006565 0.442471
102.56230164 8.49710083 28.04890060 0.000000 0.000000 0.000000
102.54360199 8.50050354 28.04479980 0.330307 0.755678 0.565550
102.21260071 8.53620148 28.04129982 -0.285228 0.936383 0.204529
102.22570038 8.53029633 28.04240036 -0.908254 0.354900 0.221631
102.23989868 8.53230286 28.04450035 -0.984033 0.134022 -0.117118
102.20800018 8.54509735 28.04220009 -0.624185 0.781265 -0.004134
102.23010254 8.54029846 28.04540062 -0.718621 0.297416 -0.628592
102.54620361 8.54850006 28.04730034 0.852837 0.215851 -0.475476
102.52310181 8.55860138 28.04500008 0.785005 0.619451 -0.006898
102.21170044 8.56169891 28.04599953 -0.569736 0.727357 0.382560
102.54160309 8.56320190 28.04010010 0.523336 0.697224 -0.489896
102.24629974 8.57440186 28.04710007 -0.848083 0.161328 0.504706
102.51619720 8.57319641 28.04780006 0.697729 0.706655 0.117528
102.50119781 8.58740234 28.04759979 0.994389 0.038714 0.098443
102.51660156 8.59130096 28.04770088 0.264393 0.951546 0.157025
102.27320099 8.61039734 28.04190063 -0.874319 0.209302 -0.437902
102.26679993 8.62409973 28.04070091 -0.886561 0.391875 -0.245853
102.25129700 8.63909912 28.04150009 0.544174 0.111737 0.831498
102.26899719 8.63739777 28.04759979 -0.844105 0.536176 0.001351
102.27619934 8.63729858 28.04870033 -0.747519 0.656466 -0.101334
102.30729675 8.63690186 28.04490089 -0.311381 0.947171 0.076868
102.46479797 8.63529968 28.04389954 -0.547400 0.806451 -0.223586
102.49829865 8.63289642 28.04210091 0.472033 0.780233 -0.410393
102.27429962 8.64199829 28.04459953 -0.408351 0.912552 -0.022321
102.28669739 8.64869690 28.04159927 -0.171630 0.956602 -0.235492
102.34539795 8.64219666 28.04199982 0.233128 0.807458 0.541907
102.41010284 8.64669800 28.04439926 -0.151600 0.984802 -0.084753
102.45524597 8.64464951 28.04425049 0.286765 0.937876 0.195333
102.47859955 8.64890289 28.04980087 0.491682 0.822591 -0.285644
102.27159882 8.65560150 28.04039955 -0.455466 0.857970 0.237568
102.33679962 8.65570068 28.04680061 0.220452 0.803184 0.553441
102.34729767 8.65409851 28.04290009 0.173657 0.879960 0.442169
102.38970184 8.65270233 28.04719925 0.737705 0.519859 -0.430741
102.43190002 8.65709686 28.04940033 0.409938 -0.097999 0.906833
102.47209930 8.65180206 28.04080009 0.402242 0.898195 -0.177332
102.31929779 8.66819763 28.04059982 -0.078050 0.972534 0.219285
102.39469910 8.66529846 28.04109955 0.488803 0.854291 -0.176801
102.48010254 8.66529846 28.04770088 0.386577 0.918290 -0.085454
102.37129974 8.67410278 28.04490089 0.064644 0.995952 0.062452
102.36489868 8.32869720 28.05540085 -0.110749 -0.982136 -0.152128
102.41780090 8.32199860 28.05179977 -0.162472 -0.914080 0.371566
102.33529663 8.33229828 28.05220032 -0.205631 -0.949169 -0.238314
102.37380219 8.33899689 28.05340004 0.110730 -0.968570 0.222733
102.39029694 8.33540344 28.05649948 0.270292 -0.946701 0.175214
102.32620239 8.34670258 28.05800056 -0.516800 -0.817878 0.252968
102.40110016 8.34459686 28.05450058 0.037295 -0.849497 -0.526274
102.47415161 8.34614944 28.05540085 -0.085223 -0.995003 0.052019
102.41529846 8.35949707 28.05139923 0.360028 -0.905172 -0.225929
102.44539642 8.35870361 28.05760002 0.459151 -0.862965 0.210881
102.44999695 8.35330200 28.05870056 0.504816 -0.790077 0.347762
102.50740051 8.35079956 28.05809975 0.897156 -0.159335 0.411974
