75.36630249 1.76029968 28.72750092 -0.936656 -0.350140 0.008848
75.84189606 1.76210022 28.72150040 -0.803152 0.590511 0.079022
75.37619781 1.78199768 28.72929955 -0.831183 0.450944 0.325245
75.82289886 1.78800201 28.72509956 -0.956698 0.270173 -0.108330
75.82799530 1.80789948 28.72990036 -0.724930 0.688753 -0.009740
75.88380432 1.80419922 28.72030067 -0.582932 0.809231 0.073046
75.35929871 1.81040192 28.72690010 0.148563 -0.951608 0.269020
75.88500214 1.85250092 28.72979927 -0.186523 0.977086 -0.102526
75.87149811 1.87000275 28.72760010 0.955260 0.261007 0.139116
75.86630249 1.88929749 28.72929955 -0.073739 0.761966 -0.643406
75.37480164 1.89019775 28.72620010 0.364654 0.925870 0.098958
75.89479828 1.89669800 28.72550011 -0.179321 0.922019 0.343110
74.76919556 1.90260315 28.72120094 -0.838283 0.540416 0.072339
75.32460022 1.90200043 28.72179985 0.556845 -0.072632 -0.827435
75.87360382 1.91880035 28.72710037 -0.498196 0.860780 0.104207
74.61940002 1.92929840 28.72599983 0.427607 -0.486588 -0.761829
75.33069611 1.92030334 28.72859955 0.980756 -0.121217 -0.153052
75.36080170 1.92520142 28.72979927 0.951537 0.307228 0.013682
75.92929840 1.92810059 28.72330093 0.000000 0.000000 0.000000
74.64730072 1.93759918 28.72109985 -0.607981 -0.792218 -0.052437
75.94940186 1.93750000 28.72940063 0.000000 0.000000 0.000000
74.79579926 1.94090271 28.72100067 -0.927432 0.340661 -0.154340
74.84695435 1.94630051 28.72224998 0.400554 0.372280 -0.837236
75.29109955 1.94709778 28.72610092 0.000000 0.000000 0.000000
74.50779724 1.95189667 28.72699928 0.707188 0.704308 -0.061933
74.59790039 1.96309662 28.72349930 0.344821 -0.681472 0.645519
74.61869812 1.96569824 28.72360039 -0.252399 -0.885636 0.389799
75.32450104 1.96720123 28.72410011 0.930486 -0.056593 0.361929
74.89830017 1.98850250 28.72610092 0.614826 0.243729 -0.750057
75.33440399 1.98899841 28.72489929 0.897246 -0.398615 0.189886
75.93129730 1.98269653 28.72380066 0.022441 0.997025 -0.073735
74.50489807 2.00109863 28.72949982 0.288203 -0.276617 -0.916745
74.88880157 2.01450348 28.72680092 -0.530881 0.793944 -0.296342
75.34069824 2.01069641 28.72270012 0.519255 0.175080 -0.836494
75.90470123 2.01329803 28.72529984 0.000000 0.000000 0.000000
74.96469879 2.04620361 28.72200012 -0.168580 0.630275 -0.757849
75.30329895 2.04509735 28.72809982 0.000000 0.000000 0.000000
75.88829803 2.04080200 28.72690010 0.981710 0.140594 -0.128368
74.98680115 2.05789948 28.72100067 -0.811518 0.580470 0.067032
74.95465088 2.06474686 28.72425079 -0.252332 0.775802 -0.578325
75.92220306 2.10859680 28.72039986 -0.317582 -0.391224 0.863762
75.91680145 2.12999725 28.72019958 -0.322216 0.244190 0.914630
74.51699829 2.14759827 28.72909927 0.099788 -0.886849 -0.451155
75.93260193 2.15190125 28.71999931 0.677710 -0.624944 0.387498
74.57869720 2.17735291 28.72364998 -0.867201 -0.042604 -0.496132
74.55509949 2.18840027 28.72190094 -0.969727 0.205700 0.131597
75.89759827 2.19380188 28.72839928 0.970939 0.185002 0.151829
74.61479950 2.21929932 28.72089958 -0.565386 -0.548509 -0.616017
75.85199738 2.22989655 28.72069931 0.299629 0.950769 0.079123
74.64649963 2.23470306 28.71999931 -0.809916 0.518534 -0.274150
75.86609650 2.26740265 28.72739983 0.676482 0.319585 -0.663504
74.68810272 2.27549744 28.72080040 0.979418 -0.124429 0.158924
74.72389984 2.27700043 28.72599983 -0.223293 0.974693 0.010633
75.31279755 2.27400208 28.72380066 0.972003 0.070579 -0.224118
74.70539856 2.28549957 28.72979927 0.514815 0.857119 0.017659
74.76219940 2.30619812 28.72699928 -0.343539 0.724526 -0.597530
74.66899872 2.32029724 28.72319984 0.959985 -0.276606 0.043806
75.72630310 2.37509918 28.72340012 0.000000 0.000000 0.000000
74.70940399 2.40769958 28.72260094 0.000000 0.000000 0.000000
75.71669769 2.40689850 28.72200012 0.000000 0.000000 0.000000
75.62449646 2.41570282 28.72130013 0.000000 0.000000 0.000000
75.64350128 2.42310333 28.72439957 0.000000 0.000000 0.000000
75.67659760 2.43250275 28.72949982 0.000000 0.000000 0.000000
74.63880157 2.44580078 28.72780037 0.529076 0.663444 0.529076
74.67720032 2.44889832 28.72699928 -0.614670 0.424772 0.664643
74.81859589 2.45960236 28.72579956 0.000000 0.000000 0.000000
74.86090088 2.46389771 28.71999931 0.000000 0.000000 0.000000
75.79910278 2.46549988 28.72990036 0.153417 -0.229469 0.961149
75.78160095 2.49109650 28.72960091 0.882250 -0.470085 0.025592
74.58429718 2.50350189 28.72380066 0.639485 0.524749 0.561870
75.45999908 2.50070190 28.72839928 0.000000 0.000000 0.000000
75.79309845 2.51020050 28.72540092 0.629608 -0.755223 0.182295
75.82820129 2.51840210 28.72960091 0.914791 -0.398962 0.063135
75.87129974 2.52330017 28.72579956 0.705390 -0.398124 -0.586448
75.43530273 2.53959656 28.72990036 0.000000 0.000000 0.000000
75.89550018 2.57659912 28.72640038 0.571473 0.642275 -0.510785
74.51280212 2.58589935 28.72050095 0.359281 0.869918 0.337877
74.54080200 2.58850098 28.72769928 0.754803 -0.610433 0.240093
75.92459869 2.59049988 28.72839928 0.930206 -0.314732 -0.188839
74.47370148 2.61569977 28.72890091 0.485682 0.866777 0.113182
74.49150085 2.64720154 28.72970009 0.405757 0.035685 -0.913284
75.94090271 2.65419769 28.72389984 0.983919 0.175825 0.031439
74.95429993 2.66349792 28.72750092 0.802915 -0.383027 0.456748
74.49459839 2.67400360 28.72249985 0.110417 -0.016399 -0.993750
74.52429962 2.67400360 28.72470093 0.000000 0.000000 0.000000
74.48950195 2.69689941 28.72820091 0.675974 0.579168 -0.455657
75.96450043 2.69529724 28.72159958 0.202337 -0.979310 0.003469
74.96530151 2.72619629 28.72690010 -0.484851 0.868751 -0.100951
75.96289825 2.73690033 28.72019958 0.633468 0.744983 -0.209091
76.03420258 2.73860168 28.72459984 0.861926 0.503831 -0.056907
74.98010254 2.74389648 28.72480011 0.723713 0.596860 0.346407
75.99309540 2.75279999 28.72920036 0.910183 0.014364 0.413957
76.01399994 2.75540161 28.72730064 0.839883 0.028961 -0.541994
76.00579834 2.77739716 28.72599983 0.824607 -0.521690 -0.218773
74.45379639 2.78440094 28.72509956 0.087093 0.427173 -0.899966
74.87979889 2.79149628 28.72870064 0.816228 -0.495399 0.297239
74.89080048 2.81510162 28.72850037 0.817659 0.347704 -0.458842
76.02500153 2.81809998 28.72369957 0.417497 0.666998 0.617098
74.82759857 2.82689667 28.72200012 0.529225 0.673712 0.515784
75.22370148 2.83989716 28.72439957 0.758216 -0.600583 -0.253790
76.05290222 2.83940125 28.72369957 0.526444 0.434027 -0.731080
76.04140472 2.85929871 28.72340012 0.083917 0.903829 -0.419586
75.99810028 2.88999939 28.72879982 0.822526 0.557571 0.112096
74.72850037 2.89299774 28.72069931 0.067339 0.991821 0.108427
74.73940277 2.90950012 28.72660065 -0.340558 0.669709 0.659932
74.76670074 2.90560150 28.72780037 0.000000 0.000000 0.000000
75.26139832 2.90540314 28.72599983 0.936812 -0.235948 0.258286
76.00530243 2.91590118 28.72660065 0.587835 -0.431301 0.684419
75.84480286 2.92030334 28.72150040 0.000000 0.000000 0.000000
75.97280121 2.93540192 28.72319984 0.491413 0.863912 -0.110317
75.99390411 2.93579865 28.72030067 0.528598 0.840224 -0.120864
75.27500153 2.94730377 28.72260094 -0.765765 0.426150 0.481664
75.31130219 2.95739746 28.72970009 -0.284242 0.805614 -0.519801
75.60119629 2.95839691 28.72960091 -0.979365 -0.111822 -0.168347
75.86849976 2.95200348 28.72529984 0.555234 0.639616 0.531607
75.35269928 2.96119690 28.71999931 0.806883 -0.586172 -0.073092
75.52359772 2.96099854 28.72209930 0.106567 -0.964239 -0.242665
75.66419983 2.97480011 28.72979927 -0.184012 0.573325 -0.798397
75.83730316 2.97119904 28.72290039 -0.272427 0.460201 -0.844984
75.38069916 2.98619843 28.72890091 0.362913 -0.635507 0.681487
75.50690460 2.98719788 28.72669983 -0.838865 0.306598 -0.449781
75.59370422 2.98680115 28.72620010 -0.434043 -0.006557 0.900868
75.70490265 2.98169708 28.72900009 0.707533 -0.369362 -0.602470
75.89160156 2.98459625 28.72920036 0.686977 0.486400 -0.539887
75.53810120 2.99410248 28.72979927 -0.961227 -0.265385 -0.074917
75.80229950 2.99629974 28.72050095 -0.270041 0.955024 0.122506
75.65889740 3.00920105 28.72039986 0.963285 0.213047 -0.163379
75.48440552 3.01615143 28.72895050 0.559511 -0.795095 0.234034
75.72190094 3.01640320 28.72970009 -0.678512 0.448451 -0.581819
75.38200378 3.02130127 28.72050095 -0.352023 -0.895654 0.271815
75.89450073 3.03029633 28.72970009 0.063207 0.844165 0.532344
75.66010284 1.50769806 28.73699951 0.136728 0.940851 0.310007
75.53969574 1.51989746 28.73810005 0.606140 0.514965 -0.606140
75.60839844 1.51619720 28.73460007 0.307896 0.852517 0.422391
75.69705200 1.52410126 28.73455048 -0.681400 0.618705 0.391021
75.50749969 1.54799652 28.73760033 0.356963 0.528176 0.770459
75.46810150 1.55960083 28.73320007 0.786666 0.601568 0.138823
75.72470093 1.55709839 28.73189926 0.000000 0.000000 0.000000
75.65499878 1.56960297 28.73329926 0.044223 -0.199600 0.978879
75.74420166 1.56729889 28.73990059 0.310258 -0.933557 0.179477
75.51080322 1.58200073 28.73030090 0.165231 -0.323520 0.931683
75.79910278 1.58550262 28.73110008 -0.691702 -0.656231 -0.301511
75.64270020 1.59269714 28.73900032 0.673418 0.182544 0.716370
75.49659729 1.60980225 28.73290062 0.256986 -0.859156 0.442503
75.39609528 1.62049866 28.73310089 0.811097 -0.052192 0.582579
75.75129700 1.62509918 28.73439980 -0.899217 0.428133 -0.090060
75.80640411 1.63169861 28.73360062 -0.705479 0.705479 -0.067807
75.40519714 1.64530182 28.73990059 0.776109 -0.405138 0.483237
75.74659729 1.65290070 28.73399925 -0.967809 0.239756 -0.076571
75.81110382 1.65959930 28.73040009 -0.968011 0.235394 -0.086857
75.36769867 1.68180084 28.73030090 0.759199 -0.113954 -0.640805
75.40579987 1.68710327 28.73450089 0.716252 0.619243 0.321748
75.81950378 1.68740082 28.73010063 -0.630903 0.667333 0.395763
75.81340027 1.70619965 28.73489952 -0.792333 0.049609 0.608069
75.84500122 1.70140076 28.73320007 -0.914568 0.396990 0.077230
75.42539978 1.71029663 28.73139954 0.000000 0.000000 0.000000
75.82920074 1.71859741 28.73489952 -0.936656 0.103476 0.334616
75.81850433 1.73549652 28.73660088 0.483931 -0.386821 0.784972
75.38770294 1.74909973 28.73480034 -0.760584 -0.168513 0.626989
75.83119965 1.75080109 28.73959923 -0.655217 0.749029 -0.098209
75.85600281 1.79380035 28.73730087 -0.830658 -0.513637 -0.214904
75.85440063 1.82240295 28.72999954 -0.044027 0.734254 0.677445
75.34829712 1.84609985 28.73150063 0.810460 -0.426810 -0.401233
75.83899689 1.85410309 28.73150063 0.000000 0.000000 0.000000
75.36119843 1.86509705 28.73740005 0.919760 0.373696 -0.119969
75.33740234 1.88189697 28.73509979 0.484330 0.568125 -0.665326
74.61360168 1.90679932 28.73819923 -0.193103 -0.709074 -0.678178
74.64060211 1.91459656 28.73530006 0.247433 -0.723386 -0.644585
74.56359863 1.92009735 28.73570061 -0.537150 0.830141 -0.149455
74.78369904 1.92279816 28.73810005 -0.791970 0.582197 -0.183932
75.89959717 1.92829895 28.73520088 -0.717354 0.572234 0.397431
74.54330444 1.94270325 28.73640060 -0.367526 0.910950 -0.187338
74.56179810 1.95089722 28.73240089 -0.835376 0.472708 -0.280525
75.90110016 1.95189667 28.73990059 -0.988895 -0.051805 0.139297
74.48110199 1.96589661 28.73469925 0.330181 0.165787 0.929244
74.85569763 1.96980286 28.73710060 -0.516492 0.715782 -0.469991
74.55509949 1.97630310 28.73509979 -0.985293 -0.144160 -0.091738
75.88345337 1.98799896 28.73495102 0.098537 0.974143 -0.203310
74.46269989 1.99099731 28.73929977 -0.080094 0.916332 0.392326
74.55940247 1.99559784 28.73189926 0.000000 0.000000 0.000000
74.85070038 1.99990082 28.73970032 -0.642876 0.682135 0.348429
74.48410034 2.00569916 28.73130035 -0.410231 0.030339 -0.911477
74.87139893 2.00469971 28.73579979 -0.240353 0.807898 0.538081
74.95729828 2.00379944 28.73640060 0.000000 0.000000 0.000000
74.52269745 2.01969910 28.73439980 0.845860 -0.203549 -0.493041
74.50109863 2.02369690 28.73229980 -0.403214 0.319791 -0.857410
75.34379578 2.03549957 28.73950005 0.950603 0.084759 -0.298612
74.51589966 2.04149628 28.73620033 -0.486264 0.339588 -0.805126
75.90529633 2.04579926 28.73699951 0.973370 0.022692 -0.228115
74.93759918 2.05529785 28.73870087 -0.382055 0.897317 -0.221036
74.53109741 2.06410217 28.73399925 -0.489492 0.247048 -0.836280
75.92880249 2.06670380 28.73489952 0.206018 0.978292 -0.022368
74.97809601 2.07160187 28.73780060 -0.662262 0.721199 -0.203176
75.90039825 2.07589722 28.73559952 0.003032 0.999505 -0.031329
74.49680328 2.08260345 28.73660088 -0.952786 0.147915 -0.265181
74.51529694 2.09439850 28.73559952 -0.961382 -0.136968 -0.238715
74.98829651 2.09470367 28.73859978 -0.847185 0.530352 0.031683
75.38729858 2.09760284 28.73509979 0.000000 0.000000 0.000000
75.87670135 2.09999847 28.73520088 0.804875 -0.115820 -0.582032
74.95349884 2.10089874 28.73130035 0.000000 0.000000 0.000000
75.02040100 2.10209656 28.73780060 -0.800887 0.206730 -0.561999
74.50189972 2.11190033 28.73130035 0.152898 -0.037937 -0.987514
74.52339935 2.12449646 28.73839951 0.636781 -0.226863 -0.736914
74.49629974 2.13919830 28.73299980 -0.192919 0.022215 -0.980963
75.36980438 2.13619995 28.73959923 0.000000 0.000000 0.000000
75.02239990 2.14730072 28.73830032 -0.330404 -0.003740 -0.943832
75.89364624 2.14690018 28.73435020 -0.952859 0.302673 -0.021175
74.56349945 2.15840149 28.73629951 -0.490010 0.408613 -0.770016
75.93339539 2.17279816 28.73279953 0.298117 -0.506325 0.809173
75.45929718 2.18740082 28.73970032 -0.298120 -0.023700 -0.954234
75.88230133 2.18060303 28.73539925 -0.472968 -0.118599 0.873061
74.60620117 2.19750214 28.73810005 0.229819 -0.812851 -0.535217
75.48400116 2.19709778 28.73170090 0.000000 0.000000 0.000000
75.87070465 2.20989990 28.73509979 -0.158888 0.900364 0.405092
74.59069824 2.21240234 28.73290062 0.237849 -0.678893 -0.694645
74.64160156 2.21640015 28.73620033 -0.880454 0.462132 -0.105994
75.89609528 2.22029877 28.73909950 0.540473 0.802143 0.253882
75.86859894 2.24299622 28.73170090 -0.314662 0.714848 -0.624484
74.68869781 2.25589752 28.72999954 -0.153045 0.968431 -0.196773
74.74600220 2.27950287 28.73920059 -0.329122 0.932281 0.150101
74.68889618 2.29290009 28.73870087 0.961482 -0.266587 -0.066963
75.85919952 2.29869843 28.73410034 0.000000 0.000000 0.000000
74.66300201 2.43399811 28.73600006 0.230926 0.972759 0.020341
75.70619965 2.44190216 28.73259926 0.225693 -0.969598 0.094564
75.73519897 2.44850159 28.73469925 -0.033575 -0.958745 -0.282277
74.62919617 2.46469879 28.73649979 0.166105 0.963931 0.207958
75.75329590 2.47779846 28.73150063 0.001193 -0.967197 -0.254023
74.59609985 2.48860168 28.73299980 0.007061 0.999604 0.027234
75.87329865 2.49980164 28.73609924 0.000000 0.000000 0.000000
74.55879974 2.51000214 28.73859978 0.708633 0.696798 0.110955
74.52000427 2.52429962 28.73119926 -0.602588 0.764524 -0.228890
75.88410187 2.53869629 28.73270035 0.802353 -0.217143 -0.555949
75.81060028 2.54039764 28.73119926 0.000000 0.000000 0.000000
74.48080444 2.55979919 28.73660088 0.000000 0.000000 0.000000
74.51959991 2.57150269 28.73469925 0.893161 -0.441734 -0.084469
75.91719818 2.57050323 28.73660088 0.501579 -0.863600 0.051125
74.49420166 2.59089661 28.73730087 0.574480 0.664923 0.477337
75.34870148 2.59719849 28.73970032 0.000000 0.000000 0.000000
75.36840057 2.60729980 28.73970032 0.453013 -0.884857 0.108667
75.94139862 2.60130310 28.73640060 0.911689 -0.263183 -0.315529
75.92369843 2.61969757 28.73609924 0.686910 -0.600839 0.408836
74.46710205 2.63529968 28.73469925 0.741118 -0.236594 0.628305
74.51819611 2.64070129 28.73900032 0.373783 0.749197 -0.546800
75.96340179 2.67469788 28.73780060 0.881974 -0.375404 -0.284945
74.95099640 2.69470215 28.73920059 -0.766543 0.126517 0.629607
75.28269958 2.70449829 28.73419952 0.000000 0.000000 0.000000
75.94390106 2.70719910 28.73539925 0.200439 -0.573776 0.794106
75.98180389 2.70169830 28.73469925 0.688436 -0.669268 -0.279527
74.93640137 2.71019745 28.73390007 0.336686 0.249235 0.908033
74.94609833 2.72840118 28.73679924 -0.084925 0.249704 0.964591
74.92379761 2.73179626 28.73360062 -0.165048 0.359721 0.918346
75.31060028 2.73889923 28.73500061 0.000000 0.000000 0.000000
76.00600433 2.73619843 28.73850060 0.547774 0.675085 -0.494169
75.26689911 2.74420166 28.73170090 0.180943 0.973044 -0.142983
74.47979736 2.75489807 28.73450089 0.827550 -0.312490 -0.466380
74.93059540 2.75279999 28.73139954 -0.003845 0.388341 0.921508
74.95760345 2.75689697 28.73259926 0.157905 0.969254 -0.188716
74.84370422 2.76619720 28.73369980 0.000000 0.000000 0.000000
74.93820190 2.78730011 28.73509979 -0.008882 0.354028 0.935193
76.03250122 2.78029633 28.73520088 0.772122 -0.634793 -0.029428
74.91960144 2.79789734 28.73089981 0.606254 0.303931 -0.734902
74.84989929 2.81060028 28.73929977 0.883921 -0.053446 0.464572
75.21430206 2.81749725 28.73760033 0.835753 0.536335 0.117732
74.80940247 2.82749939 28.73990059 0.597821 -0.651407 0.467204
74.92089844 2.82009888 28.73270035 0.897297 -0.087103 0.432749
76.00890350 2.82109833 28.73959923 0.780323 0.562779 0.272719
75.99600220 2.84130096 28.73530006 -0.300264 0.248544 -0.920906
76.02169800 2.84929657 28.73539925 -0.424127 0.637023 -0.643676
74.76760101 2.86710358 28.73520088 0.620028 0.713922 -0.325393
74.79940033 2.86009979 28.73049927 0.476604 0.878098 -0.042334
74.65840149 2.88770294 28.73130035 0.826630 0.451891 -0.335376
76.02020264 2.88150024 28.72999954 0.601285 0.750417 -0.274465
74.70149994 2.89270020 28.73950005 0.206598 0.972891 0.103925
74.65149689 2.91529846 28.73200035 -0.982544 0.127840 -0.135145
74.67230225 2.92729950 28.72999954 -0.545989 0.660226 -0.515749
75.25199890 2.92199707 28.73270035 0.886332 0.258576 0.384127
75.56940460 2.93939972 28.73859978 -0.498047 -0.176918 0.848910
76.02149963 2.93520355 28.73959923 0.426572 -0.736207 0.525391
75.29489899 2.94589996 28.73679924 -0.241691 0.970335 0.005953
75.78549957 2.94159698 28.73159981 0.761468 -0.632304 0.142681
75.34239960 2.95130157 28.73699951 -0.712329 -0.326146 -0.621463
75.83209991 2.95149994 28.73909950 -0.667871 0.743797 -0.026715
75.95510101 2.95390320 28.73089981 0.966000 0.251185 0.061234
75.50170135 2.96379852 28.73390007 -0.482854 -0.157038 -0.861505
75.54450226 2.96730042 28.73209953 0.205065 -0.976790 -0.061884
75.56520081 2.96279907 28.73329926 -0.964353 -0.187113 -0.187113
75.36560059 2.97080231 28.73889923 0.940027 -0.306975 -0.148713
75.75340271 2.98549652 28.73329926 0.094404 0.874996 -0.474837
75.85510254 2.98979950 28.73590088 -0.541445 0.795689 -0.271507
75.92520142 2.98950195 28.73730087 0.495044 0.387920 -0.777463
75.35849762 2.99109650 28.73270035 0.733611 -0.172345 0.657352
75.48089600 2.99440002 28.73139954 -0.603474 -0.772386 -0.198087
75.66664886 2.99424744 28.73460007 0.969271 0.110520 -0.219769
75.82479858 2.99069977 28.73469925 0.463128 0.583508 -0.667106
75.37550354 3.00550079 28.73259926 0.927723 -0.362203 -0.090214
75.44789886 3.00540161 28.73209953 0.000000 0.000000 0.000000
75.88359833 3.00450134 28.73690033 -0.926891 0.322091 -0.192692
75.41069794 3.01730347 28.73469925 -0.503946 -0.784095 -0.362262
75.36640167 3.02349854 28.73539925 -0.621816 -0.700155 0.350894
75.50849915 3.02749634 28.73730087 -0.755674 -0.243512 0.607996
75.68379974 1.47789764 28.74749947 -0.386421 0.529902 -0.754906
75.50419617 1.49739838 28.74309921 0.631540 0.082754 -0.770914
75.58769989 1.49839783 28.74460030 0.345948 -0.280618 0.895306
75.56320190 1.50540161 28.74839973 0.094463 0.390174 0.915883
75.50910187 1.52310181 28.74990082 0.822215 -0.020659 -0.568802
75.64070129 1.52510071 28.74169922 0.846863 0.102084 0.521921
75.55709839 1.53350067 28.74909973 0.101928 0.142699 0.984504
75.75410461 1.53330231 28.74530029 -0.130653 -0.991423 0.003294
75.47999573 1.54470062 28.74049950 -0.385840 0.786209 0.482703
75.53869629 1.54190063 28.74589920 0.803159 -0.073014 0.591274
75.57789612 1.54550171 28.74510002 0.187535 -0.365048 0.911905
75.59919739 1.54370117 28.74720001 0.960642 -0.104727 0.257292
75.64310455 1.54560089 28.74749947 -0.240681 0.348622 0.905834
75.69680023 1.54309845 28.74489975 -0.895581 0.425861 -0.128749
75.45510101 1.58000183 28.74589920 0.583384 0.801968 0.128492
75.42600250 1.59220123 28.74460030 0.286051 0.263052 0.921400
75.69760132 1.59220123 28.74440002 -0.627308 0.233090 0.743071
75.75939941 1.59369659 28.74869919 -0.491528 -0.511522 -0.704801
75.78330231 1.59349823 28.74990082 -0.361174 0.813040 -0.456639
75.71640015 1.60169983 28.74139977 -0.223479 0.973293 -0.052511
75.43879700 1.61109924 28.74850082 0.410610 -0.442815 0.797066
75.47709656 1.61060333 28.74580002 0.129510 -0.958896 0.252479
75.69345093 1.61444855 28.74510002 -0.047087 0.700592 -0.712007
75.73500061 1.61720276 28.74729919 -0.468237 0.757393 0.455093
75.78070068 1.62729645 28.74049950 -0.243848 -0.166563 0.955403
75.36419678 1.64355087 28.74670029 0.825323 0.407117 -0.391276
75.76449585 1.64900208 28.74320030 -0.303660 -0.001229 0.952780
75.78969574 1.64849854 28.74640083 -0.162678 -0.152590 0.974809
75.83149719 1.65740204 28.74650002 -0.929609 -0.159798 0.332102
75.34259796 1.66719818 28.74430084 0.191710 0.918787 -0.345078
75.37879944 1.66059875 28.74760056 0.483239 -0.236284 -0.843001
75.76670074 1.67530060 28.74189949 -0.866598 -0.077249 -0.492992
75.80069733 1.67220306 28.74519920 -0.729835 0.666371 0.152616
75.38420105 1.69490051 28.74930000 0.254559 0.901991 -0.348730
75.40370178 1.72389984 28.74810028 0.000000 0.000000 0.000000
75.79430389 1.73439789 28.74449921 -0.003682 -0.953706 0.300718
75.84989929 1.75689697 28.74360085 -0.822255 0.529355 -0.208996
75.41200256 1.77780151 28.74659920 0.260227 0.585116 0.768063
75.84009552 1.81700134 28.74489975 -0.731105 -0.169421 0.660895
75.38019562 1.82029724 28.74200058 0.055771 -0.762198 0.644937
75.86409760 1.85369873 28.74970055 0.805885 0.325851 0.494339
75.90090179 1.88899994 28.74760056 -0.600281 0.689578 0.405148
75.34529877 1.89550018 28.74900055 0.000000 0.000000 0.000000
75.86969757 1.90820313 28.74819946 -0.899696 0.429931 0.075547
74.49710083 1.91459656 28.74939919 0.000000 0.000000 0.000000
74.59510040 1.91529846 28.73999977 -0.624984 -0.332784 -0.706151
74.52649689 1.92620087 28.74539948 0.529529 -0.078081 0.844691
74.65800476 1.92449951 28.74029922 0.443708 -0.560036 -0.699630
74.58390045 1.93669891 28.74970055 0.528724 0.724302 -0.442537
74.63610077 1.93669891 28.74099922 0.006648 -0.881559 -0.472026
75.31010437 1.93229675 28.74740028 0.000000 0.000000 0.000000
75.32450104 1.94490051 28.74029922 0.764629 0.344325 0.544778
75.92449951 1.95619965 28.74600029 -0.577904 0.214210 0.787490
74.50700378 1.97180176 28.74080086 0.351250 0.684528 -0.638784
75.31890106 1.98169708 28.74489975 0.793016 -0.378009 0.477740
75.90339661 1.98179626 28.74160004 -0.573889 0.091071 0.813853
74.52159882 1.99900055 28.74760056 0.718619 -0.632193 -0.289688
74.91040039 2.01779938 28.74189949 0.200390 0.947423 -0.249465
74.47190094 2.02300262 28.74110031 -0.742828 -0.577755 0.338238
74.94400024 2.03209686 28.73999977 -0.901326 -0.423747 -0.089719
74.49659729 2.04940033 28.74600029 -0.308084 0.371826 -0.875688
74.91880035 2.04940033 28.74970055 -0.407884 0.866180 0.288727
74.96360016 2.05529785 28.74390030 -0.252635 0.770457 -0.585296
75.89270020 2.05809784 28.74780083 -0.645977 0.272746 -0.712968
74.50810242 2.06870270 28.74880028 -0.493673 0.147955 -0.856969
75.36479950 2.07150269 28.74430084 0.000000 0.000000 0.000000
75.93160248 2.10310364 28.74950027 -0.295364 0.283724 0.912283
75.36509705 2.11199951 28.74979973 -0.876954 -0.478711 0.042279
75.88729858 2.11869812 28.74609947 -0.355365 0.925055 -0.134126
75.91670227 2.11720276 28.74029922 -0.639269 -0.758480 -0.126662
75.00170135 2.12590027 28.74640083 -0.886225 0.025474 -0.462553
75.02449799 2.12729645 28.74049950 -0.537454 0.120891 -0.834583
75.39800262 2.12359619 28.74990082 0.000000 0.000000 0.000000
74.53189850 2.14669800 28.74720001 -0.894185 0.381538 -0.234226
75.04119873 2.15689850 28.74230003 -0.365621 0.862372 -0.350194
75.00389862 2.16519928 28.74600029 -0.650438 -0.392249 -0.650438
74.54180145 2.17189789 28.74399948 -0.390177 0.480840 -0.785210
75.90620422 2.17099762 28.74169922 -0.069987 0.578461 0.812702
74.56600189 2.18620300 28.74799919 -0.174156 0.942087 -0.286603
75.45529938 2.20860291 28.74040031 0.000000 0.000000 0.000000
75.89669800 2.20059967 28.74729919 0.956006 -0.152484 -0.250603
74.65249634 2.23650360 28.73999977 -0.865910 0.381613 -0.323375
74.64029694 2.25370026 28.74979973 -0.368712 -0.134963 -0.919694
74.66239929 2.25820160 28.74189949 -0.311605 0.886643 -0.341711
75.85610199 2.25890350 28.74550056 -0.733653 0.525922 -0.430300
74.62650299 2.26979828 28.74950027 0.000000 0.000000 0.000000
74.71299744 2.26439667 28.74510002 -0.456325 0.869823 0.187551
75.32270050 2.26409912 28.74699974 0.989826 0.112559 -0.087030
75.88019562 2.26010132 28.74760056 0.841609 0.223719 -0.491573
74.69450378 2.27290344 28.74990082 0.979582 0.170415 -0.106663
75.32049561 2.28990173 28.74469948 0.989826 0.112559 -0.087030
75.65850067 2.40699768 28.74869919 0.000000 0.000000 0.000000
74.74009705 2.43949890 28.74950027 -0.697895 0.642840 -0.315753
74.61550140 2.44899750 28.74559975 0.820331 0.293311 0.490944
74.64800262 2.45189667 28.74580002 0.669946 0.653566 -0.352172
74.69909668 2.45359802 28.74609947 -0.611190 0.641331 0.463834
74.56809998 2.48989868 28.74279976 0.402670 0.913700 0.054849
74.61499786 2.49250031 28.74110031 -0.426405 0.297098 0.854349
75.78880310 2.49829865 28.74850082 0.092836 -0.988297 0.121040
75.81459808 2.49690247 28.74469948 0.260158 -0.921332 -0.288904
74.54940033 2.52660370 28.74629974 0.723615 0.685911 -0.076857
74.52909851 2.53620148 28.74710083 0.117303 0.917722 -0.379509
75.83750153 2.53170013 28.74749947 -0.353838 0.795736 -0.491531
75.89469910 2.53140259 28.74889946 0.518834 0.853655 0.045657
75.85040283 2.54689789 28.74040031 0.695929 -0.220508 -0.683418
75.83869934 2.56330109 28.74819946 -0.881392 0.082412 -0.465140
75.85469818 2.58300018 28.74909973 0.414926 -0.017016 -0.909696
75.88680267 2.58090210 28.74530029 0.575616 0.813900 -0.078950
74.48370361 2.62229919 28.74889946 0.825926 0.560500 -0.060709
75.94239807 2.62580109 28.74920082 0.991433 0.037221 -0.125198
75.91410065 2.65160370 28.74570084 0.000000 0.000000 0.000000
75.94010162 2.65170288 28.74690056 0.461645 -0.799433 -0.384436
74.46430206 2.66570282 28.74440002 0.622145 0.578308 0.527727
75.30889893 2.67269897 28.74869919 0.393958 -0.155023 -0.905961
74.46350098 2.71730042 28.74180031 -0.833322 0.324854 -0.447263
74.92510223 2.71869659 28.74880028 0.740607 0.240579 0.627393
76.03610229 2.71869659 28.74379921 0.987575 0.147382 0.054543
75.24970245 2.74880219 28.74150085 0.000000 0.000000 0.000000
76.03220367 2.74349976 28.74749947 0.874665 -0.130697 -0.466775
74.88849640 2.75789642 28.74410057 0.227428 0.555420 -0.799866
74.91989899 2.77330017 28.74020004 0.863781 0.150541 0.480853
74.98889923 2.77110291 28.74460030 0.000000 0.000000 0.000000
75.25370026 2.77980042 28.74819946 0.377482 0.201034 0.903932
76.01860046 2.77050018 28.74720001 0.875270 -0.097566 -0.473692
76.01529694 2.79789734 28.74290085 0.995899 0.029259 -0.085610
75.23840332 2.80570221 28.74780083 0.729832 0.669886 0.136375
76.04509735 2.80509949 28.73999977 0.572308 -0.134574 -0.808921
74.84279633 2.83100128 28.74209976 0.785885 0.595092 -0.168079
74.88169861 2.83319855 28.74130058 0.203549 -0.493041 0.845860
74.82900238 2.84709930 28.74279976 0.071664 0.995584 -0.060639
75.22930145 2.84970093 28.74430084 0.000000 0.000000 0.000000
75.25559998 2.86990356 28.74130058 0.946987 0.239138 0.214541
75.97160339 2.87220001 28.74979973 -0.001243 -0.324419 -0.945912
76.02649689 2.87159729 28.74720001 -0.807948 0.439972 -0.391975
74.72409821 2.88700104 28.74869919 0.094867 0.977002 0.190965
74.75340271 2.88559723 28.74889946 0.559934 0.650735 0.512853
75.25209808 2.89029694 28.74810028 0.915638 -0.114627 0.385314
75.98130035 2.89600372 28.74160004 0.552085 -0.568969 0.609489
74.70660400 2.91259766 28.74930000 -0.841115 0.396280 -0.368086
74.65380096 2.93589783 28.74880028 -0.718082 0.525709 -0.456057
75.59550476 2.93009949 28.74379921 -0.317083 -0.416074 0.852256
75.99279785 2.93190002 28.74530029 0.507033 0.791739 -0.340688
75.79640198 2.95729828 28.74279976 -0.238316 0.352356 -0.905014
75.62870026 2.96910095 28.74659920 0.000000 0.000000 0.000000
75.73760223 2.96009827 28.74139977 0.000000 0.000000 0.000000
75.32450104 2.97200012 28.74670029 0.185537 0.624078 -0.759014
75.79740143 2.97799683 28.74160004 0.986600 -0.163121 -0.003375
75.97999573 2.97229767 28.74379921 0.066530 0.194751 -0.978594
75.56269836 2.98149872 28.74510002 0.143274 -0.900780 0.409961
75.69309998 2.98159790 28.74889946 0.924539 0.160850 -0.345478
75.94400024 2.98979950 28.74939919 0.580485 0.799480 -0.154496
75.29550171 2.99269867 28.74320030 0.000000 0.000000 0.000000
75.72630310 2.99089813 28.74799919 0.508428 0.065829 -0.858585
75.51110077 3.00669861 28.74349976 -0.831331 -0.380172 0.405412
75.63439941 3.00119781 28.74930000 0.000000 0.000000 0.000000
75.70249939 3.00779724 28.74570084 -0.536533 -0.057436 -0.841923
75.91369629 3.00949860 28.73999977 0.806928 0.517504 -0.284706
75.46479797 3.01049805 28.74819946 0.679312 -0.723905 0.120403
75.66400146 3.01049805 28.74640083 0.556256 -0.830983 0.006800
75.76869965 3.01550293 28.74099922 0.000000 0.000000 0.000000
75.86709595 3.01190186 28.74869919 -0.644789 0.680701 0.347696
75.38729858 3.02040100 28.74659920 -0.160511 -0.907668 -0.387783
75.49330139 3.04759979 28.74600029 0.000000 0.000000 0.000000
75.64139557 1.48300171 28.75510025 0.736761 0.665318 0.120561
75.68830109 1.49510193 28.75729942 -0.301755 0.507138 -0.807313
75.52059937 1.50330353 28.75720024 0.629607 -0.126517 -0.766543
75.61599731 1.50240326 28.75880051 -0.179871 0.851786 0.492044
75.72170258 1.51519775 28.75429916 -0.869620 0.426521 -0.248678
75.53160095 1.52690125 28.75900078 0.285664 0.111896 0.951775
75.58670044 1.52050018 28.75139999 0.720945 -0.073980 0.689032
75.73069763 1.53639984 28.75909996 -0.751265 0.337665 -0.567084
75.66670227 1.54759979 28.75060081 -0.277131 0.907641 0.315255
75.47370148 1.55639648 28.75629997 0.850167 0.495806 -0.177180
75.52890015 1.55719757 28.75860023 0.752947 -0.544789 0.369155
75.80519867 1.56839752 28.75429916 -0.962000 -0.267153 0.056441
75.44069672 1.57099915 28.75790024 0.122609 0.787357 0.604182
75.71009827 1.57070160 28.75869942 -0.130697 0.466775 0.874665
75.75920105 1.57360077 28.75889969 -0.570591 -0.305274 0.762387
75.72699738 1.59809875 28.75950050 -0.183769 0.874740 0.448396
75.39479828 1.61519623 28.75620079 0.917060 0.369352 -0.150269
75.75229645 1.61419678 28.75749969 -0.269259 -0.499608 -0.823342
75.79140472 1.61419678 28.75869942 -0.937163 -0.224863 0.266763
75.38240051 1.63449860 28.75390053 0.577244 0.590787 -0.563702
75.82740021 1.63600159 28.75769997 -0.281134 -0.576563 -0.767163
75.44110107 1.64469910 28.75519943 0.000000 0.000000 0.000000
75.80699921 1.64189911 28.75849915 -0.691581 -0.666026 0.279507
75.36090088 1.66829681 28.75740051 0.416477 0.901665 -0.116389
75.39969635 1.66690063 28.75569916 0.934584 0.144099 0.325252
75.81890106 1.67910004 28.75119972 -0.858188 0.054245 0.510462
75.84670258 1.68379974 28.75939941 -0.505180 -0.144965 0.850752
75.82849884 1.70310211 28.75799942 -0.397768 0.694857 0.599128
75.37270355 1.71489716 28.75499916 0.934215 0.271133 0.231798
75.84740448 1.71990204 28.75900078 -0.433718 0.896536 -0.090069
75.77930450 1.73930359 28.75839996 0.000000 0.000000 0.000000
75.81310272 1.73470306 28.75659943 -0.628008 0.761176 0.161920
75.83989716 1.77439880 28.75740051 -0.983272 0.120029 -0.137003
75.38739777 1.78119659 28.75239944 0.520873 0.813184 0.259659
75.84950256 1.79479980 28.75919914 -0.991558 0.028010 0.126606
75.37120056 1.80290222 28.75209999 0.760030 0.621843 0.188856
75.86489868 1.81159973 28.75110054 -0.803977 0.213677 0.554944
75.39009857 1.83280182 28.75889969 0.939180 -0.177906 0.293752
75.84850311 1.83920288 28.75880051 -0.612659 0.659401 -0.435706
75.38439941 1.85289764 28.75670052 0.020841 -0.270935 0.962372
74.60910034 1.86740112 28.75160027 0.000000 0.000000 0.000000
75.35649872 1.86119843 28.75939941 0.937358 0.146419 -0.316102
75.89160156 1.87380219 28.75970078 0.000000 0.000000 0.000000
74.61949921 1.88829803 28.75340080 -0.950884 -0.276063 0.140032
74.66159821 1.88919830 28.75970078 0.906509 -0.418907 -0.052532
74.59339905 1.90129852 28.75609970 -0.501947 -0.748806 -0.432826
74.65090179 1.90599823 28.75539970 0.158000 -0.588363 -0.793010
75.35739899 1.91750336 28.75580025 0.817760 0.046288 0.573695
74.56279755 1.92700195 28.75769997 0.962062 0.213937 0.169312
75.89209747 1.92510223 28.75810051 -0.572308 0.808921 -0.134574
74.82710266 1.93280029 28.75230026 0.000000 0.000000 0.000000
75.34140015 1.93329620 28.75049973 0.499287 0.835198 -0.230557
74.52059937 1.94860077 28.75119972 0.594430 0.390249 -0.703107
74.79740143 1.94960022 28.75989914 -0.548395 0.761929 0.344567
75.91380310 1.94129944 28.75709915 -0.724071 0.676100 0.136419
74.48739624 1.95600128 28.75589943 0.368580 0.290351 0.883088
74.56449890 1.95410156 28.75340080 0.570552 0.577324 0.584096
74.81950378 1.95770264 28.75200081 -0.419226 0.125627 -0.899148
75.36750031 1.95010376 28.75950050 0.000000 0.000000 0.000000
74.83209991 1.97519684 28.75489998 -0.263640 0.962474 -0.064333
74.48080444 1.98490143 28.75149918 0.752866 0.064778 -0.654979
74.50350189 1.98290253 28.75970078 0.612356 -0.585365 -0.531383
74.86969757 1.98130035 28.75200081 -0.551701 0.726270 0.410071
75.92530060 1.98290253 28.75279999 -0.946029 0.042245 -0.321317
74.48770142 2.01309967 28.75930023 -0.994184 -0.043225 -0.098643
74.88510132 2.02790070 28.75169945 -0.109172 0.964570 -0.240179
75.89679718 2.02760315 28.75209999 -0.257761 0.872769 0.414528
74.90589905 2.03420258 28.75970078 -0.732357 0.461236 0.500913
74.93750000 2.05909729 28.75970078 -0.747731 0.601054 0.282193
74.48690033 2.06469727 28.75569916 -0.625737 -0.558272 -0.544779
74.96789551 2.07839966 28.75569916 -0.496972 0.635113 -0.591312
75.91920471 2.07980347 28.75270081 -0.391298 0.777725 -0.491964
75.88849640 2.08519745 28.75449944 0.932974 0.334669 -0.132501
74.50080109 2.09500122 28.75849915 -0.953306 -0.178829 -0.243369
74.97000122 2.11419678 28.75830078 -0.255340 -0.696237 -0.670862
75.86009979 2.12049866 28.75989914 0.292438 0.208484 -0.933282
75.90850067 2.13950348 28.75799942 -0.817280 -0.357064 0.452281
75.00559998 2.14389801 28.75720024 -0.891104 -0.212867 -0.400777
75.88780212 2.14769745 28.75679970 -0.545477 0.793850 -0.268808
74.52280426 2.16470337 28.75589943 -0.807880 0.297640 -0.508665
74.59089661 2.18800354 28.75909996 -0.386847 0.816677 -0.428238
75.86239624 2.19309998 28.75919914 0.186411 0.559233 0.807781
74.61519623 2.20580292 28.75410080 -0.061197 0.898919 -0.433820
74.63780212 2.22609711 28.75600052 -0.993285 0.091324 0.071029
75.84249878 2.23739624 28.75659943 -0.870994 0.453982 -0.187803
74.72730255 2.27729797 28.75709915 -0.343426 0.939035 0.016474
75.63790131 2.38909912 28.75169945 0.127984 0.018919 0.991596
75.79499817 2.39199829 28.75070000 0.000000 0.000000 0.000000
75.62170410 2.41439819 28.75329971 0.000000 0.000000 0.000000
74.71655273 2.42340088 28.75499916 -0.535752 0.572934 -0.620255
74.68309784 2.43409729 28.75519943 -0.316655 0.936257 -0.152159
75.59220123 2.43470001 28.75289917 0.000000 0.000000 0.000000
75.75139618 2.43430328 28.75499916 0.489476 -0.775681 -0.398411
75.76059723 2.45899963 28.75079918 0.696363 -0.365386 -0.617715
74.71649933 2.46720123 28.75399971 -0.587182 0.316917 0.744836
74.63459778 2.47669983 28.75639915 0.747327 0.664444 -0.004144
75.71659851 2.47019958 28.75839996 0.589627 -0.046438 -0.806340
74.86969757 2.48179626 28.75289917 0.000000 0.000000 0.000000
75.77159882 2.49939728 28.75939941 0.353042 -0.903846 -0.241709
74.58239746 2.50279999 28.75979996 0.693505 0.159339 -0.702610
75.44770050 2.50520325 28.75930023 0.000000 0.000000 0.000000
74.50000000 2.55580139 28.75469971 0.741819 0.324849 -0.586667
75.86340332 2.56369781 28.75629997 0.738157 -0.139814 -0.659982
75.91040039 2.58300018 28.75839996 0.732125 -0.527196 0.431343
75.92859650 2.59339905 28.75239944 0.642093 -0.652048 0.403175
75.37439728 2.61270142 28.75869942 0.175633 -0.960040 0.217891
75.91269684 2.61289978 28.75510025 0.935212 -0.337753 -0.106305
74.46859741 2.64600372 28.75259972 0.681088 0.412630 0.604860
74.44509888 2.65489960 28.75939941 0.334183 0.750700 0.569887
74.48819733 2.65609741 28.75359917 0.449306 0.873569 0.187088
75.32620239 2.65670013 28.75900078 -0.635457 -0.703369 -0.318537
74.52059937 2.66860199 28.75769997 0.000000 0.000000 0.000000
75.96219635 2.66349792 28.75690079 0.595738 -0.619365 0.511355
74.94650269 2.67664719 28.75230026 0.951537 -0.013682 0.307228
74.46379852 2.68329620 28.75819969 0.000000 0.000000 0.000000
75.32789612 2.68019867 28.75569916 0.393958 -0.155023 -0.905961
75.97409821 2.68769836 28.75779915 0.761885 -0.637617 0.113913
74.50229645 2.69360352 28.75130081 0.656450 0.707313 -0.262262
75.30770111 2.70999908 28.75429916 0.000000 0.000000 0.000000
75.99069977 2.70999908 28.75160027 0.781665 -0.613850 -0.110405
74.48130035 2.71340179 28.75200081 -0.131864 0.426785 -0.894688
75.28929901 2.71839905 28.75110054 0.537526 0.343823 -0.769969
74.49589539 2.73699951 28.75779915 -0.137311 0.314048 -0.939425
74.96549988 2.73149872 28.75489998 -0.710496 0.537448 0.454252
75.28800201 2.73899841 28.75289917 -0.620829 0.029430 -0.783394
75.97979736 2.74579620 28.75419998 0.349723 -0.879606 -0.322472
76.00009918 2.74929810 28.75729942 0.590381 -0.597147 -0.543015
74.45980072 2.76020050 28.75740051 0.008042 -0.187264 -0.982277
75.23709869 2.76119995 28.75830078 0.539495 -0.090154 0.837148
74.86689758 2.77649689 28.75079918 0.920151 0.385523 0.068508
74.89089966 2.77410126 28.75600052 0.526831 0.743472 -0.411946
74.96849823 2.77140045 28.75950050 0.000000 0.000000 0.000000
76.03690338 2.77519989 28.75830078 0.567309 0.721880 -0.396294
74.47890472 2.78420258 28.75219917 -0.864217 -0.478171 -0.156466
74.83090210 2.78710175 28.75359917 0.000000 0.000000 0.000000
75.23270416 2.78669739 28.75600052 0.907156 0.224975 0.355605
74.83079529 2.80699921 28.75819969 0.910950 -0.187338 0.367526
74.87290192 2.80059814 28.75760078 0.994066 -0.023016 0.106311
74.90950012 2.81199646 28.75469971 0.897297 -0.087103 0.432749
76.02050018 2.81210327 28.75880051 0.938066 0.029515 -0.345198
76.04360199 2.84100342 28.75460052 0.000000 0.000000 0.000000
74.89199829 2.85420227 28.75110054 0.000000 0.000000 0.000000
74.79430389 2.86430359 28.75939941 0.983035 0.129698 -0.129698
75.99909973 2.86250305 28.75309944 -0.036145 0.432405 -0.900955
74.81479645 2.87500000 28.75539970 0.000000 0.000000 0.000000
74.67590332 2.89559937 28.75429916 0.126746 0.729163 -0.672500
76.00609589 2.89420319 28.75279999 0.542730 0.789570 -0.286397
74.64500427 2.91619873 28.75889969 0.305890 0.952066 -0.001228
75.99290466 2.91310120 28.75550079 0.903768 0.098266 -0.416591
75.96080017 2.94480133 28.75300026 0.945536 -0.090993 -0.312541
75.59140015 2.95130157 28.75259972 -0.438044 -0.264048 0.859300
75.99200439 2.95169830 28.75209999 0.940426 0.304376 -0.151506
75.47090149 2.96929932 28.75359917 -0.248125 -0.350899 -0.902942
75.53739929 2.96910095 28.75510025 0.426586 -0.705444 0.566015
75.96179962 2.96559906 28.75079918 0.762455 0.101367 -0.639052
75.58760071 2.97969818 28.75629997 -0.122997 -0.374520 0.919025
75.77960205 2.97989655 28.75149918 0.800558 0.579095 -0.154126
75.32859802 2.99720001 28.75040054 0.857342 -0.264385 -0.441661
75.36630249 2.99759674 28.75169945 0.398800 -0.690039 0.603991
75.39520264 2.99700165 28.75090027 0.335951 -0.940921 0.042477
75.53060150 2.99089813 28.75880051 0.061112 -0.903097 -0.425067
75.74549866 2.99980164 28.75810051 -0.123256 0.643012 -0.755873
75.97340393 2.99210358 28.75860023 0.956066 0.259786 0.135827
75.50150299 3.01619720 28.75930023 -0.886783 -0.229468 -0.401199
75.73220062 3.01509857 28.75979996 -0.663451 0.485411 -0.569393
75.88999939 3.01129913 28.75989914 -0.139531 0.990111 0.014511
75.92379761 3.02059937 28.75329971 0.909174 0.415660 -0.025072
75.36579895 3.04119873 28.75819969 0.000000 0.000000 0.000000
75.56880188 1.48909760 28.76659966 -0.670073 0.732475 0.120346
75.66190338 1.48429871 28.76320076 -0.341302 0.661374 -0.667906
75.63739777 1.50430298 28.76689911 0.165306 0.870416 -0.463734
75.55059814 1.51770020 28.76119995 -0.850172 0.396332 -0.346596
75.66719818 1.51139832 28.76499939 -0.767104 0.332894 -0.548391
75.68830109 1.51190186 28.76910019 0.450286 0.203594 -0.869363
75.47579956 1.52700043 28.76460075 -0.848384 0.350250 0.396950
75.51370239 1.53459930 28.76679993 0.341667 0.239894 0.908688
75.68569946 1.53269958 28.76589966 -0.115503 0.568741 0.814367
75.76300049 1.53220367 28.76740074 -0.735563 0.667208 0.117393
75.70320129 1.54979706 28.76779938 -0.455630 0.748417 0.481948
75.77770233 1.55570221 28.76020050 -0.889306 -0.047520 -0.454836
75.73940277 1.56929779 28.76289940 -0.067025 -0.895944 0.439081
75.41790009 1.57319641 28.76880074 0.627744 0.677172 0.383896
75.46680450 1.57460022 28.76210022 0.093401 0.444701 0.890796
75.74449921 1.58920288 28.76370049 -0.461086 -0.605280 -0.648873
75.41179657 1.59410095 28.76149940 0.779368 0.595627 0.194459
75.42739868 1.62899780 28.76429939 0.251173 -0.173269 0.952308
75.40409851 1.64140320 28.76300049 0.911222 -0.077638 -0.404533
75.82250214 1.65670013 28.76449966 -0.601580 0.225398 -0.766353
75.79540253 1.66190338 28.76329994 -0.903365 0.001304 0.428870
75.86750031 1.72920227 28.76300049 -0.036539 0.461471 -0.886403
75.37220001 1.73609924 28.76679993 -0.211720 0.525493 -0.824034
75.39379883 1.75810242 28.76169968 0.462573 0.721216 0.515628
75.41539764 1.75769806 28.76079941 0.043547 0.580155 0.813341
75.36740112 1.76979828 28.76440048 0.416205 0.601922 0.681515
75.86899567 1.78469849 28.76049995 -0.639704 -0.541807 -0.545183
75.35900116 1.81079865 28.76589966 0.737772 0.289667 -0.609742
75.88470459 1.82330322 28.76919937 -0.459875 -0.427375 0.778374
75.36560059 1.83390045 28.76370049 0.417851 0.144037 0.897025
75.87089539 1.83940125 28.76989937 -0.223450 -0.054947 0.973166
75.85970306 1.88670349 28.76230049 -0.664577 0.519885 0.536709
75.87999725 1.90319824 28.76829910 -0.870638 0.481478 0.100841
74.63439941 1.91690063 28.76119995 -0.651088 -0.533320 -0.540050
74.66989899 1.91699982 28.76239967 0.671803 -0.318904 -0.668566
74.76819611 1.91919708 28.76199913 -0.096089 0.962167 -0.254955
74.60680389 1.92310333 28.76899910 -0.123023 -0.769265 0.626974
75.86720276 1.92700195 28.76199913 -0.948406 0.129389 0.289457
74.45050049 1.93379974 28.76589966 0.000000 0.000000 0.000000
74.48139954 1.93560028 28.76099968 0.913064 0.283967 0.292705
74.54420471 1.95790100 28.76619911 -0.138899 0.784107 0.604883
75.88529968 1.95629883 28.76180077 -0.661982 0.480984 -0.574835
75.34169769 1.96810150 28.76619911 0.000000 0.000000 0.000000
75.89220428 1.97509766 28.76959991 -0.305189 0.513920 -0.801715
74.46240234 1.98770142 28.76939964 0.646975 0.692377 0.319434
74.88939667 1.98580170 28.76609993 -0.987103 0.124425 0.100725
75.91920471 2.00180054 28.76749992 -0.867059 0.326874 -0.375981
74.89520264 2.01570129 28.76889992 0.021039 0.699902 0.713929
74.92269897 2.01529694 28.76499939 -0.249147 0.964970 -0.082206
75.87670135 2.02559662 28.76000023 -0.685581 -0.698017 0.206762
74.44789886 2.03289795 28.76479912 0.000000 0.000000 0.000000
74.48030090 2.03220367 28.76799965 -0.991098 0.058166 0.119753
74.93720245 2.03170013 28.76499939 -0.967445 0.187791 -0.169659
75.35040283 2.04949951 28.76440048 0.000000 0.000000 0.000000
74.46879578 2.05580139 28.76770020 -0.753992 -0.277787 0.595257
74.46929932 2.07740021 28.76449966 -0.689711 0.542751 -0.479291
74.51729584 2.07830048 28.76580048 -0.670035 -0.392095 0.630329
74.98799896 2.07469940 28.76079941 -0.908327 0.365353 -0.203615
74.94290161 2.09349823 28.76829910 0.375998 -0.003824 -0.926612
74.98130035 2.10019684 28.76849937 -0.147797 0.490217 -0.858978
75.00299835 2.10320282 28.76160049 -0.573342 0.673635 -0.466363
75.38459778 2.10929871 28.76899910 0.300690 -0.852726 -0.427134
75.88559723 2.10839844 28.76519966 0.700860 0.366023 -0.612227
74.49620056 2.11710358 28.76729965 -0.782539 0.348688 -0.515801
75.90599823 2.11910248 28.76819992 -0.512288 0.739605 -0.436515
74.51470184 2.13829803 28.76619911 -0.818085 0.556773 -0.144019
75.86890411 2.14759827 28.76869965 -0.287060 0.509806 -0.810984
75.90699768 2.16600037 28.76770020 0.055544 -0.062079 0.996525
74.54920197 2.18640137 28.76490021 -0.605685 0.409875 -0.682018
74.53050232 2.19349670 28.76469994 -0.577220 0.200573 -0.791573
75.48819733 2.19419861 28.76180077 0.000000 0.000000 0.000000
75.88999939 2.19069672 28.76840019 0.297960 0.463319 0.834599
75.87239838 2.20909882 28.76609993 0.338909 0.420122 -0.841806
74.54810333 2.21420288 28.76359940 -0.414575 0.227348 -0.881158
74.59829712 2.21179962 28.76889992 -0.402690 0.790824 -0.460910
75.88649750 2.24659729 28.76679993 0.410064 -0.675693 -0.612606
74.66459656 2.25650024 28.76889992 -0.911811 0.381918 0.150794
75.86319733 2.27559662 28.76729965 0.000000 0.000000 0.000000
75.31459808 2.28050232 28.76379967 0.933050 0.109691 0.342615
75.67819977 2.38719940 28.76699829 0.190502 -0.039047 0.980910
75.76829529 2.39289856 28.76149940 0.000000 0.000000 0.000000
75.55870056 2.42780304 28.76580048 0.000000 0.000000 0.000000
75.68730164 2.42320251 28.76269913 0.701430 -0.551481 0.451514
74.61969757 2.44599915 28.76659966 -0.554433 0.801534 0.223935
74.72489929 2.44670105 28.76930046 -0.372926 0.001273 -0.927860
75.70500183 2.44390106 28.76059914 0.776627 -0.473791 0.415178
74.66920471 2.45030212 28.76490021 0.245906 0.958637 -0.143335
75.73410034 2.46140289 28.76959991 0.848074 0.199635 -0.490832
74.59109497 2.47515106 28.76214981 0.167870 0.600400 0.781882
75.48999786 2.48719788 28.76479912 0.000000 0.000000 0.000000
74.88849640 2.49880219 28.76980019 -0.993189 -0.059614 -0.100106
75.79920197 2.49700165 28.76959991 0.787982 0.505528 -0.351462
74.55229950 2.51460266 28.76650047 0.843737 0.527515 0.099179
75.79330444 2.51920319 28.76239967 0.650783 0.265723 -0.711247
74.51319885 2.53700256 28.76099968 0.388330 0.813416 0.433076
74.54199982 2.53639984 28.76519966 0.431608 0.899978 0.061269
75.88030243 2.53910065 28.76869965 0.302944 0.941434 -0.148076
75.82049561 2.54360199 28.76429939 -0.189760 0.698872 -0.689615
75.85379791 2.54709625 28.76549911 0.409680 0.356311 -0.839765
74.52069855 2.56430054 28.76180077 0.960055 -0.126701 0.249484
75.90299988 2.56300354 28.76259995 0.490829 0.871255 0.001330
74.48519897 2.58080292 28.76040077 0.857503 0.023176 0.513957
75.87070465 2.59690094 28.76199913 0.038308 -0.702318 0.710831
74.49580383 2.60890198 28.76320076 0.983039 0.183394 -0.001139
75.94779968 2.60810089 28.76040077 0.981956 -0.115596 -0.149666
74.46890259 2.61560059 28.76989937 0.609974 0.717329 0.336706
75.34059906 2.62680054 28.76740074 0.000000 0.000000 0.000000
74.93170166 2.64129639 28.76860046 0.713805 -0.213053 -0.667151
75.93830109 2.64720154 28.76700020 0.996649 0.072503 -0.037875
74.96160126 2.65200043 28.76469994 0.639608 0.697902 -0.322233
74.45950317 2.70680237 28.76490021 -0.920366 -0.254142 -0.297217
74.96240234 2.70469666 28.76309967 -0.862308 0.172462 0.476112
74.91010284 2.72720337 28.76860046 0.724461 0.492368 0.482421
76.01570129 2.72859955 28.76759911 -0.132411 -0.787026 -0.602543
74.47150421 2.73809814 28.76169968 0.237011 0.549926 -0.800879
74.44529724 2.74389648 28.76040077 -0.655112 -0.082797 -0.750982
74.91629791 2.75839996 28.76630020 0.478969 0.593249 0.647028
76.05069733 2.75910187 28.76149940 0.918433 -0.278269 -0.281153
76.02069855 2.78389740 28.76709938 0.998953 0.044329 -0.011340
74.93230438 2.79109955 28.76499939 0.000000 0.000000 0.000000
75.20189667 2.81459808 28.76149940 0.685763 0.727663 -0.015363
75.22180176 2.81310272 28.76569939 0.738238 0.631656 -0.236675
74.84539795 2.83999634 28.76099968 -0.731294 0.679775 0.055813
74.81240082 2.84149933 28.76180077 0.758283 0.622930 0.192262
76.02159882 2.84390259 28.76939964 0.214175 0.933691 0.286967
74.74449921 2.86239624 28.76510048 -0.009705 0.750045 0.661315
75.21960449 2.86869812 28.76609993 0.152588 -0.753874 -0.639055
76.06639862 2.86289978 28.76950073 0.525142 0.394265 0.754176
