63.15710068 6.43769836 28.94519997 0.299069 -0.172275 -0.938552
63.21390152 6.44899750 28.94840050 0.000000 0.000000 0.000000
63.93590164 6.45480347 28.94099998 -0.801090 0.260784 0.538745
63.99470139 6.45929718 28.94930077 0.541556 0.468238 -0.698191
63.10950089 6.47139740 28.94549942 0.306758 -0.535634 -0.786763
63.94620132 6.47219849 28.94790077 -0.520641 0.767175 0.374667
63.96620178 6.47419739 28.94400024 -0.373693 0.921227 -0.108138
63.90700150 6.49819946 28.94529915 -0.474605 0.239591 -0.846963
63.90510178 6.52179718 28.94109917 -0.304987 0.403073 -0.862853
63.86729813 6.56060028 28.94239998 0.000000 0.000000 0.000000
64.38109589 6.67350006 28.94650078 -0.696771 0.032507 -0.716557
64.39540100 6.69570160 28.94639969 -0.150978 0.297875 -0.942590
64.28479767 6.70929718 28.94359970 0.250580 0.962484 0.104087
64.23574829 6.71364975 28.94219971 0.697737 -0.422619 0.578409
64.35549927 6.71649933 28.94795036 -0.068327 0.232311 -0.970239
64.41500092 6.71530151 28.94829941 -0.384250 0.694290 0.608534
64.38059998 6.73010254 28.94700050 0.763837 0.291821 -0.575668
64.41269684 6.73750305 28.94709969 0.968193 0.166307 0.186935
64.19020081 6.74990082 28.94849968 0.000000 0.000000 0.000000
64.27739716 6.74140167 28.94820023 0.000000 0.000000 0.000000
64.30410004 6.74780273 28.94529915 0.370424 -0.358025 -0.857090
64.22519684 6.76740265 28.94659996 0.898325 0.355495 0.258139
64.43830109 6.76809692 28.94890022 0.000000 0.000000 0.000000
64.18049622 6.79109955 28.94610023 0.000000 0.000000 0.000000
64.33950043 6.80580139 28.94289970 0.840554 0.455235 -0.293650
64.36970520 6.80490112 28.94309998 0.677798 0.705716 -0.206286
64.14859772 6.81700134 28.94160080 0.000000 0.000000 0.000000
64.40779877 6.83630371 28.94599915 0.000000 0.000000 0.000000
64.30414581 6.84265137 28.94379997 0.114773 -0.972417 -0.203060
64.03710175 6.85980225 28.94440079 0.000000 0.000000 0.000000
64.15110016 6.85769653 28.94420052 0.000000 0.000000 0.000000
64.28079987 6.85140228 28.94510078 -0.163240 -0.558612 0.813207
64.46659851 6.85009766 28.94729996 0.000000 0.000000 0.000000
64.42579651 6.86209869 28.94890022 0.000000 0.000000 0.000000
64.31690216 6.88400269 28.94300079 0.756665 0.319695 0.570310
64.45619965 6.88500214 28.94680023 -0.900302 0.320797 -0.294187
63.51860046 6.89929962 28.94470024 0.000000 0.000000 0.000000
64.04280090 6.89540100 28.94409943 0.696231 -0.398555 0.597006
64.35130310 6.89880371 28.94799995 0.957554 -0.288125 0.008582
64.48220062 6.89440155 28.94289970 0.681175 0.540588 0.493726
64.11329651 6.90950012 28.94440079 0.000000 0.000000 0.000000
64.31869507 6.91840363 28.94759941 0.000000 0.000000 0.000000
64.07589722 6.92359924 28.94400024 0.000000 0.000000 0.000000
64.19625092 6.92444992 28.94480133 0.000000 0.000000 0.000000
64.40529633 6.92949677 28.94000053 0.000000 0.000000 0.000000
64.52580261 6.92099762 28.94490051 0.000000 0.000000 0.000000
64.55899811 6.92089844 28.94910049 0.000000 0.000000 0.000000
64.24839783 6.93759918 28.94799995 -0.172533 -0.535602 0.826658
64.36109924 6.93930054 28.94070053 0.965092 0.216918 0.146777
64.43479919 6.93900299 28.94779968 -0.063981 0.431535 -0.899825
63.54079819 6.94080353 28.94540024 -0.371747 -0.926036 -0.065289
63.46319962 6.95649719 28.94079971 -0.741752 -0.565688 -0.360280
64.15850067 6.95960236 28.94020081 0.000000 0.000000 0.000000
64.28400421 6.96730042 28.94190025 0.853944 -0.514066 -0.080721
64.39540100 6.96369934 28.94960022 0.000000 0.000000 0.000000
64.52839661 6.96600342 28.94289970 0.000000 0.000000 0.000000
63.48709869 6.97650146 28.94569969 0.000000 0.000000 0.000000
63.51430130 6.97480011 28.94090080 0.000000 0.000000 0.000000
63.53860092 6.97019958 28.94210052 0.116776 0.369560 -0.921840
63.59669876 6.97769928 28.94939995 -0.060613 -0.835902 0.545521
64.31694794 6.97750092 28.94799995 0.000000 0.000000 0.000000
64.54059601 6.98840332 28.94370079 0.000000 0.000000 0.000000
63.42919922 7.00610352 28.94700050 0.000000 0.000000 0.000000
63.41310120 7.02200317 28.94980049 0.000000 0.000000 0.000000
63.45449829 7.02210236 28.94400024 -0.813690 -0.574623 0.087850
63.44400024 7.04989624 28.94770050 0.000000 0.000000 0.000000
63.46500015 7.07270050 28.94260025 -0.217381 0.973914 -0.065091
63.59109879 7.07959747 28.94630051 0.612296 -0.416494 -0.672032
63.54700089 7.13200378 28.94149971 0.000000 0.000000 0.000000
63.74679947 7.54039764 28.94249916 0.000000 0.000000 0.000000
63.73089981 7.56719971 28.94709969 -0.057118 0.148041 -0.987330
63.70610046 7.57630157 28.94989967 0.158224 0.351453 -0.922738
63.67520142 7.58390045 28.94860077 0.179334 0.861102 -0.475755
63.74710083 7.59760284 28.94389915 -0.317305 0.137544 -0.938296
63.77539825 7.59790039 28.94809914 -0.965944 0.246221 -0.079548
63.69620132 7.61609650 28.94140053 0.000000 0.000000 0.000000
63.74110031 7.61640167 28.94869995 -0.963706 -0.265723 0.025715
63.77610016 7.61720276 28.94190025 -0.829481 0.428170 -0.358652
63.74710083 7.64029694 28.94650078 -0.622547 -0.029379 -0.782031
63.78760147 7.64009857 28.94869995 0.000000 0.000000 0.000000
63.67010117 7.66449738 28.94809914 0.379017 0.234489 0.895188
63.69160080 7.66790009 28.94779968 -0.308075 0.393907 0.865983
63.69089890 7.69699860 28.94750023 0.000000 0.000000 0.000000
63.84790039 7.69979858 28.94549942 0.000000 0.000000 0.000000
63.70119858 7.72730255 28.94429970 -0.959009 -0.046383 -0.279554
63.72240067 7.73130035 28.94239998 0.028941 -0.547132 -0.836546
63.74229813 7.75579834 28.94529915 -0.082477 -0.200653 -0.976184
63.76419830 7.76619720 28.94129944 -0.214399 0.193092 -0.957470
63.72790146 7.77279663 28.94300079 0.000000 0.000000 0.000000
63.84180069 7.79319763 28.94650078 0.000000 0.000000 0.000000
63.11000061 6.28440094 28.95050049 0.000000 0.000000 0.000000
63.10789871 6.34729767 28.95879936 -0.227944 -0.415663 0.880491
63.23989868 6.34120178 28.95669937 0.663565 0.747738 0.023849
63.26480103 6.35240173 28.95980072 0.000000 0.000000 0.000000
63.04729843 6.36789703 28.95820045 0.000000 0.000000 0.000000
63.24639893 6.39980316 28.95319939 0.857792 -0.031466 -0.513033
63.20589828 6.40380096 28.95689964 0.978655 -0.003483 -0.205483
63.07720184 6.41419983 28.95490074 -0.643547 -0.713811 0.276262
63.18000031 6.42669678 28.95450020 0.299069 -0.172275 -0.938552
63.96179962 6.42539978 28.95949936 0.000000 0.000000 0.000000
63.12860107 6.43389893 28.95210075 0.517465 -0.855122 -0.031569
63.18000031 6.44999695 28.95019913 0.491017 0.153901 -0.857448
64.01380157 6.44789886 28.95649910 0.939567 0.341312 0.026845
63.16070175 6.46730042 28.95089912 0.000000 0.000000 0.000000
63.99089813 6.47830200 28.95910072 -0.191495 0.419535 -0.887310
63.89099884 6.51779938 28.95800018 0.000000 0.000000 0.000000
63.92160034 6.53489685 28.95709991 -0.793139 0.231267 0.563424
63.90639877 6.56439972 28.95969963 -0.434282 -0.829084 0.352163
64.42020416 6.67359924 28.95879936 -0.226641 0.869041 0.439774
64.37039948 6.69400024 28.95129967 -0.631326 -0.347474 -0.693317
64.26460266 6.71309662 28.95039940 0.071389 0.948827 -0.307622
64.39440155 6.71410370 28.95719910 0.109853 0.596134 -0.795334
64.45700073 6.72190094 28.95050049 0.000000 0.000000 0.000000
64.23840332 6.73560333 28.95499992 0.928001 -0.166063 0.333522
64.31650543 6.73200226 28.95350075 0.459179 -0.676246 -0.576061
64.32759857 6.75569916 28.95140076 0.316292 -0.230421 -0.920253
64.37519836 6.75160217 28.95070076 0.448121 0.777286 -0.441603
64.35789490 6.76200104 28.95549965 0.497907 0.834952 -0.234399
64.41090393 6.76260376 28.95380020 0.141172 0.221472 -0.964894
64.39780426 6.78500366 28.95350075 0.881745 0.173434 0.438686
64.24109650 6.81330109 28.95719910 0.000000 0.000000 0.000000
64.35309601 6.81240082 28.95989990 0.995056 0.014045 -0.098317
64.40360260 6.81120300 28.95129967 0.000000 0.000000 0.000000
64.32989502 6.82830048 28.95159912 0.882563 0.440555 -0.164299
64.43659973 6.82279968 28.95240021 0.000000 0.000000 0.000000
64.36239624 6.83119965 28.95179939 0.969818 -0.102419 0.221275
64.15370178 6.84059906 28.95940018 0.870269 -0.245847 -0.426839
64.35839844 6.85610199 28.95849991 0.573582 -0.125333 0.809503
64.30630493 6.86900330 28.95299911 0.944284 -0.061047 0.323421
64.28579712 6.87149811 28.95989990 0.184857 -0.612624 0.768453
64.12439728 6.88839722 28.95870018 0.000000 0.000000 0.000000
64.54660034 6.88819885 28.95739937 0.000000 0.000000 0.000000
64.40889740 6.89409637 28.95039940 -0.161773 0.778629 -0.606272
64.14479828 6.90840149 28.95260048 -0.865864 -0.054030 -0.497353
64.46309662 6.90959930 28.95260048 -0.234167 0.344706 -0.909034
64.37390137 6.91560364 28.95000076 0.883512 0.435206 0.173209
64.14360046 6.92900085 28.95240021 0.211493 -0.022449 -0.977122
64.50009918 6.92970276 28.95269966 0.163463 0.926293 0.339501
63.49679947 6.93540192 28.95520020 0.000000 0.000000 0.000000
64.21910095 6.93329620 28.95879936 0.000000 0.000000 0.000000
64.47509766 6.93160248 28.95949936 -0.444907 0.814866 0.371553
64.58200073 6.93689728 28.95709991 0.000000 0.000000 0.000000
63.52320099 6.94979858 28.95219994 -0.465759 -0.884268 -0.033751
63.57580185 6.94909668 28.95960045 -0.479120 -0.640508 -0.600161
63.59960175 6.94519806 28.95680046 -0.184500 -0.952126 -0.243755
64.12609863 6.94149780 28.95109940 0.000000 0.000000 0.000000
64.15969849 6.94460297 28.95369911 0.317939 -0.449499 -0.834785
64.63939667 6.94730377 28.95240021 0.000000 0.000000 0.000000
64.30690002 6.95359802 28.95219994 0.923961 -0.377318 0.062664
64.34560394 6.95819855 28.95840073 0.811314 -0.433661 -0.392055
64.23739624 6.96029663 28.95369911 0.000000 0.000000 0.000000
64.43620300 6.96479797 28.95089912 -0.279253 0.422695 -0.862175
64.45669556 6.96610260 28.95599937 0.182873 0.480228 -0.857869
64.48300171 6.97329712 28.95009995 -0.792407 0.607464 0.055483
63.46210098 6.99160004 28.95639992 0.000000 0.000000 0.000000
63.58509827 6.99410248 28.95619965 0.366220 -0.694669 0.619126
63.60950089 6.99299622 28.95330048 0.651281 -0.755255 0.073648
63.51110077 7.03939819 28.95919991 0.000000 0.000000 0.000000
63.59740067 7.03980255 28.95479965 0.000000 0.000000 0.000000
63.47969818 7.04779816 28.95190048 0.000000 0.000000 0.000000
63.58200073 7.06210327 28.95639992 -0.861319 -0.507538 0.023132
63.60549927 7.06629944 28.95249939 -0.004115 0.794195 -0.607649
63.48820114 7.07350159 28.95870018 -0.580155 0.043547 -0.813341
63.49420166 7.09390259 28.95549965 0.000000 0.000000 0.000000
63.55450058 7.10150146 28.95980072 0.000000 0.000000 0.000000
63.50669861 7.11340332 28.95739937 -0.016367 0.108021 -0.994014
63.52989960 7.11779785 28.95750046 -0.183605 0.969381 0.163061
63.60129929 7.11930084 28.95000076 0.000000 0.000000 0.000000
63.70700073 7.53769684 28.95030022 0.000000 0.000000 0.000000
63.72269821 7.58930206 28.95089912 -0.531202 0.741709 -0.409502
63.66699982 7.60240173 28.95140076 0.315255 0.277131 -0.907641
63.69179916 7.60060120 28.95949936 -0.717901 0.695245 -0.035399
63.72760010 7.63749695 28.95739937 -0.492878 0.042560 -0.869057
63.80950165 7.66709900 28.95260048 0.000000 0.000000 0.000000
63.71390152 7.67379761 28.95089912 0.000000 0.000000 0.000000
63.86080170 7.67030334 28.95890045 0.000000 0.000000 0.000000
63.84299850 7.68150330 28.95969963 -0.356380 -0.511187 -0.782100
63.63150024 7.70079803 28.95109940 0.000000 0.000000 0.000000
63.82109833 7.70659637 28.95929909 0.000000 0.000000 0.000000
63.82460022 7.76809692 28.95269966 0.000000 0.000000 0.000000
63.75809860 7.80169678 28.95590019 0.000000 0.000000 0.000000
63.81819916 7.80789948 28.95420074 0.000000 0.000000 0.000000
63.14879990 6.27380371 28.96980095 0.197261 0.948213 0.248957
63.18669891 6.28130341 28.96599960 0.302693 0.951504 -0.054919
63.20999908 6.28199768 28.96610069 -0.397099 0.827421 0.397099
63.06119919 6.29029846 28.96710014 0.000000 0.000000 0.000000
63.09640121 6.30200195 28.96220016 0.000000 0.000000 0.000000
63.16870117 6.30780029 28.96459961 -0.366341 0.753849 0.545441
63.21709824 6.30069733 28.96199989 0.000000 0.000000 0.000000
63.12490082 6.31320190 28.96829987 0.000000 0.000000 0.000000
63.19290161 6.34230042 28.96739960 0.605409 0.300296 0.737090
63.09109879 6.36620331 28.96349907 0.981323 0.113653 -0.155203
63.06650162 6.38619995 28.96520042 -0.209712 -0.703699 0.678844
63.10459900 6.38790131 28.96739960 0.880759 -0.139370 0.452592
63.21210098 6.38289642 28.96910095 0.973303 0.135076 -0.185571
63.04339981 6.39279938 28.96489906 -0.088980 -0.272098 0.958147
63.99739838 6.43270111 28.96059990 -0.727217 0.485364 -0.485364
63.19139862 6.45629883 28.96920013 0.000000 0.000000 0.000000
63.22959900 6.46520233 28.96540070 0.000000 0.000000 0.000000
63.26539993 6.46669769 28.96960068 0.000000 0.000000 0.000000
63.96509933 6.46669769 28.96500015 -0.676613 0.701615 0.223454
63.13439941 6.47319794 28.96170044 0.000000 0.000000 0.000000
63.96799850 6.48639679 28.96789932 -0.014966 0.844909 -0.534701
63.94400024 6.50910187 28.96750069 -0.856330 -0.160654 -0.490805
64.00270081 6.50250244 28.96389961 0.000000 0.000000 0.000000
63.95959854 6.53669739 28.96030045 0.000000 0.000000 0.000000
63.94070053 6.56629944 28.96789932 0.000000 0.000000 0.000000
63.89070129 6.57589722 28.96739960 0.612227 0.366023 0.700860
64.44499969 6.65519714 28.96809959 0.739754 -0.018179 0.672631
64.31639862 6.67639923 28.96710014 0.178345 0.775876 -0.605153
64.34020233 6.67259979 28.96929932 0.188470 0.276514 -0.942348
64.37310028 6.68060303 28.96940041 -0.802605 -0.213312 -0.557066
64.43939972 6.69190216 28.96069908 -0.587327 0.556861 0.587327
64.29560089 6.70349884 28.96669960 0.772240 0.598911 -0.212018
64.33520508 6.70549774 28.96139908 0.579482 -0.768959 -0.270004
64.36880493 6.71330261 28.96509933 0.179053 0.659590 -0.729987
64.25099945 6.72129822 28.96719933 0.345892 0.914246 -0.210980
64.27580261 6.72519684 28.96529961 0.429888 -0.763338 -0.482194
64.39749908 6.74819946 28.96290016 0.325540 0.546843 -0.771354
64.46580505 6.74909973 28.96529961 0.000000 0.000000 0.000000
64.23040009 6.75559998 28.96570015 0.674380 0.341272 0.654786
64.25429535 6.75530243 28.96190071 0.137946 -0.425216 0.894518
64.43099976 6.75530243 28.96500015 -0.472230 0.769621 0.429746
64.47869873 6.77159882 28.96619987 0.000000 0.000000 0.000000
64.22419739 6.78009796 28.96640015 0.963882 0.263552 -0.038357
64.37129974 6.79679871 28.96820068 -0.339238 0.917518 0.207551
64.18669891 6.82969666 28.96570015 0.000000 0.000000 0.000000
64.31479645 6.85209656 28.96629906 0.232300 -0.949578 0.210565
64.41019440 6.86779785 28.96369934 0.000000 0.000000 0.000000
64.16930389 6.88870239 28.96899986 0.000000 0.000000 0.000000
64.33369446 6.88549805 28.96610069 0.604900 -0.693905 -0.390630
64.45120239 6.88919830 28.96680069 0.787556 0.612544 0.067423
64.30730438 6.89350128 28.96179962 -0.098088 -0.642696 0.759816
64.35119629 6.89910126 28.96899986 0.569295 -0.796399 -0.204087
64.59310150 6.89910126 28.96759987 0.000000 0.000000 0.000000
64.28559875 6.90709686 28.96750069 -0.256014 -0.847758 0.464504
64.41239929 6.90720367 28.96629906 -0.290673 0.809170 -0.510641
64.26460266 6.91030121 28.96940041 0.000000 0.000000 0.000000
64.43550110 6.91000366 28.96139908 0.141357 0.373686 -0.916721
64.16680145 6.92610168 28.96159935 0.326179 -0.261820 -0.908327
64.33090210 6.92160034 28.96414948 0.948732 -0.310237 0.060503
64.54589844 6.92109680 28.96800041 -0.144540 -0.944240 0.295835
64.36719513 6.93530273 28.96470070 0.722404 -0.307303 -0.619433
64.52890015 6.93289948 28.96980095 0.307628 -0.867785 0.390274
64.39080048 6.94670105 28.96080017 -0.141289 0.572590 0.807575
64.27570343 6.95050049 28.96100044 0.736236 0.317371 0.597689
64.51390076 6.95639801 28.96450043 0.000000 0.000000 0.000000
64.60589600 6.95524979 28.96805000 0.000000 0.000000 0.000000
63.48350143 6.96739960 28.96479988 -0.217041 -0.842362 0.493275
63.56079865 6.96330261 28.96829987 -0.898133 -0.227097 -0.376542
64.35900116 6.97979736 28.96220016 0.000000 0.000000 0.000000
64.42819977 6.97180176 28.96879959 -0.899515 0.431274 -0.069825
64.44509888 6.98609924 28.96470070 -0.234083 0.550328 -0.801464
64.49879456 6.99299622 28.95999908 0.000000 0.000000 0.000000
63.44820023 7.02079773 28.96699905 0.000000 0.000000 0.000000
63.46459961 7.04550171 28.96890068 0.000000 0.000000 0.000000
63.45600128 7.07189941 28.96050072 -0.394799 0.905044 -0.158205
63.62350082 7.07330322 28.96660042 -0.963626 -0.260066 0.061562
63.60509872 7.09110260 28.96129990 0.546673 0.293143 -0.784357
63.57530212 7.11360168 28.96234894 -0.353151 0.730713 -0.584245
63.57149887 7.15859985 28.96240044 0.000000 0.000000 0.000000
63.76490021 7.58080292 28.96319962 -0.510255 -0.370947 -0.775911
63.68619919 7.63739777 28.96610069 0.000000 0.000000 0.000000
63.82519913 7.63700104 28.96199989 -0.567510 0.823366 0.001361
63.84669876 7.64230347 28.96010017 -0.206097 0.548065 -0.810647
63.78440094 7.66560364 28.96349907 0.000000 0.000000 0.000000
63.71149826 7.70919800 28.96150017 -0.917435 -0.192021 0.348483
63.68659973 7.72419739 28.96920013 0.000000 0.000000 0.000000
63.70840073 7.73459625 28.96730042 0.037941 0.614082 -0.788330
63.80229950 7.73979950 28.96680069 0.000000 0.000000 0.000000
63.85070038 7.74579620 28.96910095 0.000000 0.000000 0.000000
63.70019913 7.76239777 28.96089935 0.000000 0.000000 0.000000
63.73550034 7.78510284 28.96689987 0.000000 0.000000 0.000000
63.83580017 7.78970337 28.96750069 0.651463 0.696503 0.300799
63.87400055 7.78549957 28.96479988 0.529653 0.087086 0.843732
63.79700089 7.79100037 28.96619987 0.327949 0.411879 -0.850180
63.10260010 6.27470016 28.97504997 0.000000 0.000000 0.000000
63.12760162 6.28289795 28.97459984 -0.037979 0.925898 -0.375860
63.17549896 6.29340363 28.97879982 0.809835 0.559495 0.176445
63.19350052 6.31539917 28.97069931 -0.725959 0.360533 0.585662
63.06919861 6.32990265 28.97780037 0.590887 -0.049358 0.805243
63.09270096 6.32469940 28.97599983 -0.075285 -0.546882 0.833818
63.17390060 6.33499908 28.97439957 0.000000 0.000000 0.000000
63.22990036 6.34940338 28.97760010 0.658657 0.751744 -0.032439
63.21469879 6.36579895 28.97929955 0.954300 0.211319 -0.211319
63.25889969 6.36900330 28.97060013 0.000000 0.000000 0.000000
63.08739853 6.39250183 28.97820091 0.014456 -0.902839 0.429736
63.98809814 6.40450287 28.97979927 0.000000 0.000000 0.000000
63.10530090 6.41459656 28.97610092 -0.259001 -0.940437 -0.220220
63.21760178 6.41139984 28.97290039 0.636270 -0.565386 -0.524881
63.08269882 6.42040253 28.97789955 -0.400738 -0.707475 0.582141
63.23379898 6.42890167 28.97480011 0.700566 -0.608688 -0.372432
64.00469971 6.44360352 28.97850037 -0.268444 0.938860 -0.215590
63.11989975 6.45120239 28.97680092 0.000000 0.000000 0.000000
63.15629959 6.45179749 28.97400093 0.000000 0.000000 0.000000
63.98780060 6.45529938 28.97830009 -0.212351 -0.323514 -0.922088
63.94440079 6.48799896 28.97369957 -0.471480 -0.585575 -0.659401
63.91469955 6.50469971 28.97330093 0.000000 0.000000 0.000000
63.93399811 6.52660370 28.97920036 -0.768629 -0.468358 -0.435719
63.93690109 6.54620361 28.97599983 -0.798883 0.288354 0.527862
64.40930176 6.67769623 28.97570038 -0.691713 0.709718 0.133541
64.43840027 6.67479706 28.97590065 -0.444985 0.111599 0.888557
64.34840393 6.69689941 28.97509956 -0.976113 0.171226 -0.133731
64.41310120 6.71440125 28.97130013 -0.711227 0.683814 0.162958
64.45059967 6.71710205 28.97949982 0.000000 0.000000 0.000000
64.49340057 6.71690369 28.97179985 0.000000 0.000000 0.000000
64.31159973 6.72679901 28.97660065 -0.228121 -0.780579 -0.581943
64.37480164 6.72799683 28.97789955 0.815018 0.153468 -0.558742
64.33969879 6.73290253 28.97570038 0.000000 0.000000 0.000000
64.41510010 6.73930359 28.97010040 -0.514908 0.338460 0.787601
64.36899567 6.75399780 28.97660065 0.838754 0.502039 0.210826
64.39980316 6.76879883 28.97270012 0.880759 0.139370 0.452592
64.35230255 6.79319763 28.97909927 0.265960 0.676845 0.686401
64.44329834 6.79540253 28.97769928 0.000000 0.000000 0.000000
64.38439941 6.81359863 28.97610092 0.462574 0.031018 -0.886038
64.44110107 6.81759644 28.97340012 0.907586 0.416926 0.049602
64.11180115 6.83560181 28.97920036 0.000000 0.000000 0.000000
64.35620117 6.83350372 28.97470093 0.896806 -0.280159 0.342417
64.38299561 6.83989716 28.97579956 0.000000 0.000000 0.000000
64.16359711 6.85659790 28.97030067 0.000000 0.000000 0.000000
64.33930206 6.85829926 28.97240067 0.044058 -0.979993 -0.194093
64.47269440 6.85919952 28.97920036 0.000000 0.000000 0.000000
64.48429871 6.88559723 28.97800064 0.000000 0.000000 0.000000
64.31439972 6.90660095 28.97870064 -0.107137 -0.788116 -0.606131
64.39339447 6.90350342 28.97520065 0.243361 0.969846 -0.013187
64.57009888 6.90350342 28.97540092 0.322190 0.003732 0.946668
64.64029694 6.90319824 28.97780037 0.000000 0.000000 0.000000
64.18699646 6.91670227 28.97979927 0.000000 0.000000 0.000000
64.37590027 6.91609955 28.97200012 0.785839 0.563106 -0.255672
64.48270416 6.91419983 28.97769928 -0.453579 0.857097 0.244235
64.51439667 6.91660309 28.97789955 -0.191700 0.081808 0.978038
64.61399841 6.91840363 28.97850037 0.000000 0.000000 0.000000
64.44850159 6.92680359 28.97640038 -0.740691 0.664118 -0.101606
64.56479645 6.92859650 28.97710037 -0.742386 -0.622596 0.247462
64.30030060 6.93430328 28.97430038 0.080564 -0.507409 -0.857931
64.49749756 6.93550110 28.97960091 0.001061 -0.090153 0.995927
63.54100037 6.94609833 28.97739983 0.032029 0.817435 -0.575129
64.19100189 6.94760132 28.97249985 0.000000 0.000000 0.000000
64.32550049 6.94319916 28.97139931 0.082958 -0.723336 0.685495
64.41999817 6.94180298 28.97299957 -0.654042 0.711053 -0.258133
64.26039886 6.95040131 28.97990036 0.627862 -0.590830 0.506666
64.56584930 6.95775223 28.97444916 -0.291468 -0.801931 0.521491
64.47989655 6.96690369 28.97509956 0.000000 0.000000 0.000000
63.50260162 6.98210144 28.97279930 0.522769 0.133255 -0.841995
64.40560150 6.98490143 28.97750092 0.000000 0.000000 0.000000
63.47919846 6.99089813 28.97450066 -0.320361 -0.836065 0.445380
63.58000183 6.99469757 28.97809982 0.000000 0.000000 0.000000
64.53310394 6.99140167 28.97620010 0.000000 0.000000 0.000000
63.60919952 7.00270081 28.97820091 0.000000 0.000000 0.000000
63.44540024 7.04769897 28.97970009 0.373080 0.780077 0.502286
63.57929993 7.04409790 28.97859955 0.000000 0.000000 0.000000
63.50970078 7.05660248 28.97400093 0.000000 0.000000 0.000000
63.47079849 7.08029938 28.97150040 -0.350619 0.886330 -0.302466
63.57849884 7.12899780 28.97970009 -0.126747 0.753028 -0.645666
63.72510147 7.54840088 28.97430038 0.000000 0.000000 0.000000
63.76800156 7.55919647 28.97150040 0.000000 0.000000 0.000000
63.72700119 7.58640289 28.97290039 -0.947044 0.236419 0.217287
63.69290161 7.61569977 28.97640038 -0.955408 -0.186258 0.229137
63.74789810 7.61869812 28.97170067 0.000000 0.000000 0.000000
63.83330154 7.65769958 28.97389984 -0.749651 0.459676 -0.476152
63.69580078 7.66500092 28.97890091 0.000000 0.000000 0.000000
63.80099869 7.68229675 28.97739983 0.000000 0.000000 0.000000
63.84939957 7.71430206 28.97540092 0.000000 0.000000 0.000000
63.69279861 7.74970245 28.97900009 -0.872551 -0.352994 -0.337712
63.72909927 7.74669647 28.97929955 -0.265463 0.869201 -0.417156
63.86899948 7.75990295 28.97200012 0.616440 -0.398289 -0.679241
63.88830185 7.76869965 28.97710037 0.271467 -0.617548 -0.738200
63.81740189 7.80180359 28.97929955 -0.009443 0.859353 0.511295
63.87379837 7.80449677 28.97360039 0.721480 -0.283153 0.631895
63.93849945 7.80899811 28.97699928 0.000000 0.000000 0.000000
63.78850174 7.81179810 28.97299957 0.000000 0.000000 0.000000
63.19929886 6.28019714 28.98410034 -0.009278 0.998880 0.046388
63.08319855 6.29869843 28.98620033 0.000000 0.000000 0.000000
63.22449875 6.30580139 28.98800087 -0.219227 0.392843 0.893092
63.15760040 6.31770325 28.98839951 0.000000 0.000000 0.000000
63.20660019 6.32279968 28.98870087 0.515496 0.177809 -0.838241
63.09159851 6.34320068 28.98880005 0.075756 -0.564597 0.821882
63.21390152 6.34290314 28.98850060 -0.806243 0.338718 0.485018
63.20220184 6.39469910 28.98590088 0.984424 -0.116878 -0.131337
63.23329926 6.39430237 28.98010063 0.593612 0.177628 -0.784903
63.17589951 6.42299652 28.98450089 0.000000 0.000000 0.000000
63.96870041 6.44799805 28.98530006 0.000000 0.000000 0.000000
63.29339981 6.45300293 28.98369980 0.000000 0.000000 0.000000
63.95000076 6.45500183 28.98310089 -0.780068 -0.407063 -0.475177
63.13309860 6.46219635 28.98880005 0.000000 0.000000 0.000000
63.27289963 6.46240234 28.98970032 0.424944 0.904505 0.035967
64.01810455 6.46160126 28.98340034 -0.791869 0.489899 0.364613
63.99150085 6.50520325 28.98880005 0.000000 0.000000 0.000000
63.91239929 6.53240204 28.98819923 0.000000 0.000000 0.000000
63.88069916 6.56379700 28.98250008 0.000000 0.000000 0.000000
63.88130188 6.59629822 28.98819923 0.000000 0.000000 0.000000
64.43030548 6.64849854 28.98410034 0.201807 0.823921 0.529555
64.40129852 6.65489960 28.98390007 0.000000 0.000000 0.000000
64.53659821 6.65100098 28.98780060 0.000000 0.000000 0.000000
64.29090118 6.66989899 28.98200035 0.000000 0.000000 0.000000
64.35639954 6.66770172 28.98049927 -0.282502 0.950956 -0.125998
64.50389862 6.66690063 28.98640060 0.000000 0.000000 0.000000
64.32759857 6.68859863 28.98609924 -0.480765 0.467548 -0.741798
64.48519897 6.69059753 28.98500061 0.000000 0.000000 0.000000
64.31940460 6.70709991 28.98679924 0.338709 -0.097730 -0.935802
64.39730072 6.70210266 28.98240089 -0.667033 0.732987 -0.133407
64.28810120 6.71910095 28.98349953 0.233547 -0.625405 -0.744530
64.42890167 6.72699738 28.98130035 -0.136076 0.513578 0.847184
64.24060059 6.73390198 28.98600006 0.208771 -0.756213 0.620126
64.26490021 6.74230194 28.98810005 0.000000 0.000000 0.000000
64.48639679 6.74829865 28.98340034 0.000000 0.000000 0.000000
64.21309662 6.75669861 28.98360062 0.308365 -0.634489 0.708755
64.43530273 6.75599670 28.98699951 0.000000 0.000000 0.000000
64.40230560 6.79660034 28.98439980 0.561354 0.713698 0.418946
64.21749878 6.82230377 28.98399925 0.000000 0.000000 0.000000
64.35309601 6.84960175 28.98950005 0.804652 0.507452 -0.308265
64.31529999 6.87159729 28.98310089 0.813615 -0.426788 0.394819
64.15299988 6.88439941 28.98390007 0.000000 0.000000 0.000000
64.34500122 6.88459778 28.98509979 0.157545 -0.986114 -0.052515
64.25389862 6.89189911 28.98760033 0.000000 0.000000 0.000000
64.51750183 6.89499664 28.98410034 -0.603468 0.138574 0.785254
64.29199982 6.91230011 28.98654938 0.269631 -0.064559 -0.960797
64.43430328 6.91190338 28.98240089 -0.740691 0.664118 -0.101606
63.51070023 6.93039703 28.98030090 0.000000 0.000000 0.000000
64.24169922 6.93139648 28.98100090 0.000000 0.000000 0.000000
64.39039612 6.93620300 28.98990059 0.000000 0.000000 0.000000
63.51850128 6.94969940 28.98320007 -0.157182 0.129953 -0.978982
63.56480026 6.94589996 28.98049927 -0.059574 -0.998131 -0.013587
64.35649872 6.94660187 28.98760033 0.000000 0.000000 0.000000
64.37429810 6.95780182 28.98060036 0.000000 0.000000 0.000000
64.42969513 6.95649719 28.98889923 -0.628933 0.671852 0.391226
64.62460327 6.95010376 28.98019981 0.000000 0.000000 0.000000
64.64669800 6.95220184 28.98349953 0.147995 -0.889409 -0.432491
63.50299835 6.96469879 28.98590088 0.899029 0.346916 -0.267199
64.54979706 6.96890259 28.98259926 0.051692 -0.540670 0.839645
63.55770111 6.97940063 28.98410034 0.756551 -0.631728 0.168968
63.45729828 6.99369812 28.98530006 -0.020087 -0.977171 0.211504
63.61669922 7.02999878 28.97999954 -0.864761 -0.119426 -0.487777
63.58480072 7.06900024 28.98139954 -0.164836 0.784863 -0.597343
63.60720062 7.06909943 28.98450089 0.073185 0.890644 0.448774
63.48820114 7.09400177 28.98649979 -0.691549 0.622558 0.366307
63.52709961 7.11289978 28.98360062 0.000000 0.000000 0.000000
63.55519867 7.12840271 28.98360062 -0.165678 -0.001127 -0.986179
63.55070114 7.15399933 28.98430061 0.000000 0.000000 0.000000
63.72449875 7.56600189 28.98410034 -0.989006 0.044694 -0.140959
63.71049881 7.63649750 28.98229980 0.000000 0.000000 0.000000
63.82949829 7.63760376 28.98399925 -0.946938 0.267643 0.177975
63.70149994 7.68779755 28.98970032 -0.878738 -0.006647 0.477257
63.79729843 7.75700378 28.98259926 0.000000 0.000000 0.000000
63.86370087 7.77929688 28.98679924 0.947226 -0.315742 0.055416
63.91709900 7.78489685 28.98909950 0.312915 0.161282 0.935987
63.94419861 7.78320313 28.98730087 0.082277 0.923927 0.373617
63.73799896 7.80349731 28.98870087 -0.626715 0.569280 0.532117
63.80649948 7.84120178 28.98380089 0.175207 0.966881 0.185589
63.84880066 7.84559631 28.98100090 0.000000 0.000000 0.000000
63.77989960 7.85500336 28.98150063 0.000000 0.000000 0.000000
63.88669968 7.85669708 28.98410034 0.000000 0.000000 0.000000
63.12120056 6.24839783 28.99990082 0.000000 0.000000 0.000000
63.15879822 6.27110291 28.99489975 -0.185042 0.982676 -0.010344
63.12189865 6.28440094 28.99559975 0.797294 0.600467 -0.061330
63.18040085 6.28009796 28.99900055 -0.193750 0.966149 0.170344
63.11119843 6.30490112 28.99930000 0.730304 0.683008 -0.012519
63.06629944 6.31770325 28.99489975 0.899912 0.362607 -0.242228
63.06999969 6.34729767 28.99360085 0.798548 -0.180317 0.574288
63.07460022 6.36799622 28.99139977 0.000000 0.000000 0.000000
63.21649933 6.37789917 28.99819946 0.787576 0.372045 -0.491229
63.16220093 6.38120270 28.99580002 0.000000 0.000000 0.000000
63.07189941 6.40190125 28.99799919 0.000000 0.000000 0.000000
63.10340118 6.41020203 28.99710083 0.838015 -0.544364 -0.037399
63.23149872 6.41580200 28.99189949 0.971579 -0.042667 -0.232838
63.99430084 6.42649841 28.99760056 0.000000 0.000000 0.000000
64.03389740 6.42559814 28.99290085 0.000000 0.000000 0.000000
63.19419861 6.43715286 28.99494934 0.494925 0.662697 -0.562034
63.08269882 6.44080353 28.99069977 0.000000 0.000000 0.000000
64.01490021 6.44439697 28.99959946 -0.791869 0.489899 0.364613
63.90589905 6.47209930 28.99559975 0.000000 0.000000 0.000000
63.94620132 6.47760010 28.99379921 -0.960797 -0.064559 0.269631
64.01110077 6.48930359 28.99110031 0.000000 0.000000 0.000000
64.40390015 6.62470245 28.99720001 0.000000 0.000000 0.000000
64.56039429 6.66390228 28.99180031 0.000000 0.000000 0.000000
64.42120361 6.67019653 28.99880028 0.249573 0.951076 0.182121
64.35849762 6.68109894 28.99629974 -0.979593 -0.174884 0.099060
64.46599579 6.68920135 28.99489975 0.000000 0.000000 0.000000
64.52349854 6.68080139 28.99640083 -0.015187 -0.799410 0.600593
64.28730011 6.69979858 28.99270058 -0.409244 -0.588185 -0.697537
64.42969513 6.70520020 28.99550056 0.000000 0.000000 0.000000
64.34339905 6.71410370 28.99090004 0.250935 -0.550187 -0.796446
64.49739838 6.73290253 28.99370003 0.202420 0.641255 0.740147
64.20199585 6.77220154 28.99139977 -0.075008 -0.330299 0.940891
64.22429657 6.77819824 28.99349976 -0.728131 0.254293 0.636522
64.41429901 6.77950287 28.99370003 0.000000 0.000000 0.000000
64.46610260 6.78759766 28.99189949 0.000000 0.000000 0.000000
64.19269562 6.79609680 28.99609947 0.000000 0.000000 0.000000
64.22609711 6.79949951 28.99230003 -0.672263 0.055902 0.738199
64.48614502 6.79155350 28.99750137 0.000000 0.000000 0.000000
64.50680542 6.79450226 28.99110031 0.000000 0.000000 0.000000
64.19359589 6.82630157 28.99880028 0.000000 0.000000 0.000000
64.42489624 6.82070160 28.99230003 0.064773 0.992044 -0.107954
64.44430542 6.81999969 28.99740028 0.064773 0.992044 -0.107954
64.13330078 6.83529663 28.99629974 0.000000 0.000000 0.000000
64.31030273 6.83309937 28.99939919 0.925569 0.208359 -0.316083
64.19210052 6.85849762 28.99740028 0.000000 0.000000 0.000000
64.24250031 6.85749817 28.99480057 0.000000 0.000000 0.000000
64.30290222 6.85199738 28.99020004 0.974465 -0.039848 0.220975
64.32170105 6.89129639 28.99489975 0.578002 0.061067 -0.813747
64.45819855 6.90239716 28.99270058 -0.662125 0.363101 -0.655553
64.53500366 6.90280151 28.99620056 0.000000 0.000000 0.000000
64.69409943 6.90799713 28.99010086 0.000000 0.000000 0.000000
64.20179749 6.91210175 28.99390030 0.000000 0.000000 0.000000
64.25790405 6.91709900 28.99920082 0.000000 0.000000 0.000000
64.56079865 6.91809845 28.99920082 -0.848104 -0.403044 -0.343910
63.54589844 6.92340088 28.99559975 0.000000 0.000000 0.000000
64.47200012 6.92539978 28.99150085 -0.613310 0.666497 -0.423832
64.66749573 6.92189789 28.99279976 0.000000 0.000000 0.000000
64.52839661 6.93150330 28.99530029 -0.423472 -0.482333 0.766828
63.47340012 6.94599915 28.99390030 0.000000 0.000000 0.000000
63.61830139 6.94570160 28.99090004 0.000000 0.000000 0.000000
64.31679535 6.94750214 28.99329948 0.000000 0.000000 0.000000
64.41130066 6.94249725 28.99699974 -0.175561 0.935866 0.305504
64.58050537 6.94120026 28.99699974 0.000000 0.000000 0.000000
63.54769897 6.95780182 28.99530029 0.787274 -0.046643 -0.614837
64.51750183 6.95079803 28.99150085 0.000000 0.000000 0.000000
64.40200043 6.96269989 28.99670029 0.000000 0.000000 0.000000
64.57520294 6.96630096 28.99279976 -0.870736 -0.248997 0.424050
64.45999908 6.97589874 28.99489975 -0.348951 0.559945 0.751462
64.50160217 6.97750092 28.99320030 0.000000 0.000000 0.000000
63.57320023 6.98470306 28.99720001 0.213144 -0.679882 -0.701663
63.62129974 6.98570251 28.99749947 0.000000 0.000000 0.000000
64.56539917 6.98729706 28.99349976 -0.383500 -0.208519 0.899693
64.41670227 7.00279999 28.99539948 0.000000 0.000000 0.000000
63.60960007 7.01149750 28.99710083 -0.955906 -0.092089 -0.278860
63.57799911 7.02570343 28.99979973 0.000000 0.000000 0.000000
63.45769882 7.03199768 28.99500084 0.488841 0.774674 0.401142
63.60509872 7.03710175 28.99880028 -0.879080 0.214952 -0.425457
63.51559830 7.06770325 28.99090004 0.000000 0.000000 0.000000
63.44340134 7.07499695 28.99239922 0.152762 -0.412600 0.898012
63.46500015 7.07460022 28.99160004 -0.070319 0.983267 0.168049
63.56959915 7.07969666 28.99920082 -0.806782 -0.298399 -0.509962
63.56039810 7.10350037 28.99990082 -0.536155 0.303874 -0.787527
63.58940125 7.10639954 28.99200058 0.230898 0.951949 -0.201192
63.61370087 7.10179901 28.99819946 0.195091 0.980186 -0.034289
63.49520111 7.12590027 28.99419975 0.000000 0.000000 0.000000
63.78599930 7.61840057 28.99500084 0.000000 0.000000 0.000000
63.79619980 7.64150238 28.99279976 0.000000 0.000000 0.000000
63.80849838 7.65760040 28.99570084 -0.548768 0.742066 -0.384957
63.83169937 7.67130280 28.99869919 0.019678 0.184043 -0.982721
63.72370148 7.70320129 28.99370003 -0.612617 0.734180 0.292712
63.78279877 7.73609924 28.99270058 0.000000 0.000000 0.000000
63.86190033 7.73560333 28.99819946 0.738915 -0.653947 0.162349
63.87810135 7.75299835 28.99519920 0.536179 -0.712138 -0.453179
63.74069977 7.76390076 28.99920082 -0.169407 0.211431 -0.962600
63.90439987 7.76020050 28.99020004 0.928362 0.198633 -0.314150
63.96239853 7.77709961 28.99839973 0.397378 0.904427 -0.155248
63.71149826 7.78549957 28.99180031 0.000000 0.000000 0.000000
63.87829971 7.78990173 28.99780083 -0.381421 -0.359625 0.851580
63.85760117 7.80750275 28.99349976 0.757629 0.302731 0.578232
63.90689850 7.80460358 28.99480057 0.580470 0.067032 0.811518
63.88610077 7.82800293 28.99139977 0.000000 0.000000 0.000000
63.82730103 7.83450317 28.99900055 0.665752 0.578551 -0.471225
63.79399872 7.86070251 28.99850082 -0.559697 0.166559 0.811786
63.85929871 7.87740326 28.99169922 0.000000 0.000000 0.000000
63.10760117 6.26229858 29.00469971 0.000000 0.000000 0.000000
63.21580124 6.29329681 29.00309944 0.000000 0.000000 0.000000
63.24200058 6.30999756 29.00309944 0.472780 0.539604 -0.696640
63.16709900 6.31210327 29.00559998 -0.419970 0.732889 0.535256
63.22549820 6.33039856 29.00769997 0.533888 0.691209 0.487026
63.14220047 6.36979675 29.00679970 0.525127 -0.105025 0.844519
63.22859955 6.36070251 29.00149918 0.888407 0.298133 -0.349070
63.26200104 6.37729645 29.00250053 0.000000 0.000000 0.000000
63.21770096 6.39649963 29.00699997 0.684412 0.444618 -0.577837
63.25770187 6.40499878 29.00110054 0.000000 0.000000 0.000000
64.02069855 6.40540314 29.00000000 -0.875805 -0.085479 -0.475036
63.11539841 6.42849731 29.00000000 0.000000 0.000000 0.000000
63.20840073 6.42030334 29.00769997 0.824283 0.464940 0.323094
63.14089966 6.44249725 29.00900078 0.000000 0.000000 0.000000
63.97340012 6.47599792 29.00000000 0.000000 0.000000 0.000000
64.44240570 6.63510132 29.00029945 0.862132 0.391878 -0.321186
64.48210144 6.63790131 29.00460052 0.506079 -0.014845 0.862359
64.36080170 6.66259766 29.00849915 0.037546 0.552061 0.832958
64.44709778 6.66300201 29.00110054 0.149441 0.747203 0.647576
64.30640411 6.68479919 29.00200081 -0.292607 -0.933823 -0.205805
64.38559723 6.68319702 29.00749969 -0.538895 0.420239 0.730063
64.50080109 6.68669891 29.00919914 0.488190 -0.375407 0.787871
64.35399628 6.69740295 29.00909996 -0.885920 -0.367259 0.283314
64.26910400 6.70970154 29.00250053 0.259419 -0.397375 0.880224
64.39360046 6.70240021 29.00230026 -0.924202 0.339015 -0.175838
64.48760223 6.71849823 29.00880051 0.357346 0.579259 0.732641
64.28170013 6.73079681 29.00830078 -0.268977 -0.102653 0.957661
64.46559906 6.73999786 29.00440025 -0.679350 0.459020 0.572524
64.40779877 6.74700165 29.00200081 0.000000 0.000000 0.000000
64.23860168 6.76139832 29.00469971 -0.632566 -0.055689 0.772502
64.24269867 6.78659821 29.00950050 -0.672631 0.018179 0.739754
64.38549805 6.79689789 29.00429916 0.704944 0.394571 0.589379
64.16570282 6.80500031 29.00079918 0.000000 0.000000 0.000000
64.37030029 6.81700134 29.00900078 0.000000 0.000000 0.000000
64.08540344 6.82859802 29.00410080 0.000000 0.000000 0.000000
64.34249878 6.82160187 29.00379944 0.488521 -0.862523 0.131915
64.36199951 6.84490204 29.00970078 0.488243 -0.776972 -0.397407
64.13760376 6.85469818 29.00110054 0.000000 0.000000 0.000000
64.12879944 6.87400055 29.00090027 0.000000 0.000000 0.000000
64.49409485 6.87210083 29.00720024 0.000000 0.000000 0.000000
64.25659943 6.88559723 29.00760078 0.000000 0.000000 0.000000
64.34270477 6.88829803 29.00909996 0.197072 -0.840942 0.503963
64.43520355 6.89749908 29.00860023 0.000000 0.000000 0.000000
64.35689545 6.90679932 29.00600052 0.000000 0.000000 0.000000
64.65869904 6.90229797 29.00900078 -0.655928 0.029496 -0.754247
64.39479828 6.91069794 29.00020027 0.268118 0.921924 -0.279588
64.44979858 6.91739655 29.00950050 -0.572517 0.449000 -0.686019
64.61209869 6.91760254 29.00550079 0.000000 0.000000 0.000000
64.34020233 6.92929840 29.00460052 0.000000 0.000000 0.000000
63.52629852 6.93000031 29.00440025 0.000000 0.000000 0.000000
64.55120087 6.93689728 29.00090027 -0.192736 -0.184869 0.963679
64.64510345 6.94219971 29.00349998 -0.703654 -0.557267 -0.440823
64.81289673 6.94129944 29.00950050 0.000000 0.000000 0.000000
63.56499863 6.95110321 29.00550079 -0.523985 -0.846657 0.092804
64.44649506 6.95790100 29.00200081 -0.514872 0.619534 0.592524
63.51179886 6.97889709 29.00379944 0.712957 -0.676000 0.186323
63.58959961 6.97029877 29.00239944 -0.696948 -0.638463 0.326542
64.47740173 6.97239685 29.00559998 -0.470018 0.249553 0.846644
63.48450089 6.98999786 29.00460052 0.000000 0.000000 0.000000
63.54119873 6.98110199 29.00900078 0.000000 0.000000 0.000000
64.59670258 6.98369980 29.00870132 0.000000 0.000000 0.000000
63.45529938 6.99870300 29.00830078 0.888514 0.458286 -0.022714
64.48799896 6.99150085 29.00589943 0.483599 -0.281451 0.828805
63.61539841 7.05439758 29.00569916 -0.946613 0.163863 0.277619
63.48320007 7.07569885 29.00469971 -0.810292 0.550877 0.199903
63.51860046 7.07830048 29.00979996 0.000000 0.000000 0.000000
63.42589951 7.08609772 29.00340080 0.000000 0.000000 0.000000
63.45180130 7.09709930 29.00219917 0.000000 0.000000 0.000000
63.50659943 7.10240173 29.00149918 -0.773666 0.457684 0.438139
63.57690048 7.11299896 29.00889969 -0.214568 0.829357 -0.515875
63.73740005 7.59230042 29.00090027 0.000000 0.000000 0.000000
63.76630020 7.63449860 29.00970078 0.361252 -0.122249 -0.924420
63.75370026 7.65239716 29.00239944 0.361252 -0.122249 -0.924420
63.77339935 7.65679932 29.00950050 0.762036 0.132722 -0.633787
63.72389984 7.66200256 29.00510025 0.000000 0.000000 0.000000
63.71129990 7.68720245 29.00779915 -0.458942 0.848812 -0.262472
63.84080124 7.69609833 29.00349998 0.000000 0.000000 0.000000
63.73699951 7.70829773 29.00869942 0.226946 0.842288 -0.488923
63.81790161 7.71720123 29.00909996 -0.437109 -0.556774 -0.706355
63.84400177 7.71720123 29.00629997 -0.232257 -0.003537 -0.972648
63.70009995 7.72160339 29.00830078 0.000000 0.000000 0.000000
63.68989944 7.75060272 29.00099945 -0.099686 0.993504 -0.054884
63.71659851 7.75330353 29.00110054 -0.139754 0.985448 0.096753
63.84080124 7.75189972 29.00589943 0.000000 0.000000 0.000000
63.73529816 7.78540039 29.00489998 -0.942774 -0.127765 0.307982
63.89810181 7.78119659 29.00300026 0.246171 -0.082057 0.965747
63.85219955 7.79360199 29.00760078 0.000000 0.000000 0.000000
63.98199844 7.80030060 29.00230026 0.000000 0.000000 0.000000
63.75859833 7.81210327 29.00379944 -0.865207 0.131442 0.483880
63.84090042 7.82080078 29.00819969 0.672103 0.733872 0.098536
63.73680115 7.83149719 29.00839996 -0.310219 0.599543 0.737775
63.79850006 7.83879852 29.00379944 0.334880 0.894501 0.296182
63.81679916 7.84929657 29.00779915 0.508301 0.779394 -0.366299
63.85589981 7.85289764 29.00799942 0.000000 0.000000 0.000000
63.89170074 7.86380005 29.00810051 0.944898 -0.281430 -0.167227
63.18209839 6.24949646 29.01630020 0.000000 0.000000 0.000000
63.14630127 6.27400208 29.01180077 0.541657 0.836067 0.087180
63.18220139 6.28279877 29.01899910 -0.065496 0.868174 -0.491919
63.12530136 6.29029846 29.01449966 0.728375 0.577789 -0.368279
63.08280182 6.31420135 29.01399994 0.245565 0.885524 0.394393
63.18820190 6.31620026 29.01469994 0.000000 0.000000 0.000000
63.20209885 6.32980347 29.01959991 -0.304101 0.931922 0.197596
63.07460022 6.33630371 29.01070023 0.874929 0.348450 -0.336277
63.05390167 6.34089661 29.01449966 0.448859 -0.846816 0.285357
63.19960022 6.35790253 29.01530075 0.000000 0.000000 0.000000
63.09019852 6.36759949 29.01449966 0.594100 -0.718485 0.361697
63.05759811 6.37409973 29.01320076 0.000000 0.000000 0.000000
64.02719879 6.38960266 29.01320076 -0.663717 0.446379 0.600188
63.08940125 6.39679718 29.01919937 0.000000 0.000000 0.000000
63.13090134 6.39119720 29.01650047 0.000000 0.000000 0.000000
63.19889832 6.40370178 29.01479912 0.701368 0.018199 0.712567
63.99810028 6.40190125 29.01790047 0.000000 0.000000 0.000000
63.15119934 6.41680145 29.01250076 0.000000 0.000000 0.000000
63.23609924 6.41790009 29.01790047 0.968270 0.197264 -0.153428
64.01779938 6.41570282 29.01889992 -0.487858 0.732614 -0.474628
63.08089828 6.43360138 29.01910019 0.000000 0.000000 0.000000
63.97129822 6.43460083 29.01639938 -0.144516 0.982466 -0.117799
63.99599838 6.43859863 29.01950073 -0.909766 0.290600 -0.296441
63.18769836 6.44159698 29.01639938 0.860343 0.483851 0.160303
63.10779953 6.45010376 29.01499939 0.000000 0.000000 0.000000
63.99340057 6.45939636 29.01530075 -0.759481 0.035226 0.649575
63.95510101 6.49539948 29.01070023 -0.470474 0.719842 -0.510373
63.97340012 6.50949860 29.01370049 0.000000 0.000000 0.000000
64.39400482 6.63649750 29.01799965 -0.624906 0.513737 -0.587850
64.57389832 6.63719940 29.01119995 0.202718 -0.967107 0.153653
64.34239960 6.64869690 29.01860046 0.000000 0.000000 0.000000
64.44359589 6.64800262 29.01919937 -0.858829 0.405515 0.313002
64.46730042 6.65000153 29.01729965 0.306298 -0.226518 0.924592
64.49259949 6.65309906 29.01650047 -0.225171 -0.322697 0.919328
64.32970428 6.67610168 29.01919937 0.000000 0.000000 0.000000
64.54070282 6.68730164 29.01440048 0.570623 -0.778122 -0.262518
64.51010132 6.70929718 29.01799965 -0.431044 -0.166903 0.886761
64.29840088 6.71779633 29.01160049 -0.394937 -0.665939 -0.632890
64.45819855 6.72000122 29.01160049 -0.711797 0.216499 0.668186
64.43499756 6.73970032 29.01819992 -0.540500 -0.431408 0.722320
64.25519562 6.75199890 29.01689911 -0.680261 -0.473007 0.559920
64.43059540 6.79499817 29.01460075 0.000000 0.000000 0.000000
64.21009827 6.80979919 29.01510048 0.000000 0.000000 0.000000
64.40879822 6.82730103 29.01510048 0.000000 0.000000 0.000000
64.15610504 6.83110046 29.01549911 0.000000 0.000000 0.000000
64.31430054 6.84539795 29.01930046 0.399215 -0.819106 0.411939
64.08850098 6.85919952 29.01580048 0.000000 0.000000 0.000000
64.17890167 6.85870361 29.01829910 0.413758 0.874157 0.254273
64.33409882 6.85330200 29.01740074 0.000000 0.000000 0.000000
64.27640533 6.86389923 29.01490021 0.414642 0.903276 0.110292
64.31010437 6.87229919 29.01300049 0.000000 0.000000 0.000000
64.19940186 6.88240051 29.01320076 0.000000 0.000000 0.000000
64.48860168 6.89369965 29.01899910 -0.685581 0.206762 -0.698017
64.58129883 6.89340210 29.01560020 0.070437 -0.786307 0.613808
64.63670349 6.90139771 29.01779938 -0.847759 0.043012 -0.528635
64.69490051 6.91239929 29.01210022 -0.886844 -0.326732 -0.326732
64.77079773 6.91799927 29.01149940 0.000000 0.000000 0.000000
64.37580109 6.92009735 29.01300049 0.186435 -0.550210 0.813948
64.64825439 6.92420197 29.01664925 -0.903471 0.052669 0.425401
64.67900085 6.92250061 29.01889992 -0.737090 0.300296 -0.605409
63.48809814 6.93789673 29.01910019 0.898308 0.295476 -0.325172
64.27109528 6.93170166 29.01320076 0.000000 0.000000 0.000000
64.42410278 6.93550110 29.01609993 0.000000 0.000000 0.000000
64.48289490 6.93620300 29.01250076 0.000000 0.000000 0.000000
63.51490021 6.94779968 29.01619911 0.000000 0.000000 0.000000
63.60879898 6.94010162 29.01490021 -0.896179 -0.193180 -0.399431
63.47330093 6.95919800 29.01180077 0.845797 0.395539 -0.358018
63.60340118 6.96160126 29.01659966 -0.844020 -0.433668 0.315536
63.46590042 6.97820282 29.01059914 0.466179 0.182032 0.865761
64.52529907 6.97750092 29.01630020 0.000000 0.000000 0.000000
64.61899567 6.97190094 29.01300049 -0.489472 -0.783479 0.382855
64.68309784 6.97010040 29.01140022 0.000000 0.000000 0.000000
63.60990143 6.99410248 29.01429939 0.070128 -0.797171 -0.599667
63.59830093 7.01989746 29.01300049 -0.111356 -0.193934 -0.974674
63.45249939 7.02539825 29.01399994 0.000000 0.000000 0.000000
64.65610504 7.02169800 29.01569939 0.000000 0.000000 0.000000
63.46969986 7.05419922 29.01280022 0.341986 0.135970 0.929816
63.59619904 7.08270264 29.01829910 0.000000 0.000000 0.000000
63.49010086 7.09100342 29.01950073 -0.771755 0.614069 -0.165268
63.55270004 7.09880066 29.01889992 -0.821447 0.309417 -0.479047
63.51900101 7.12010193 29.01740074 -0.339040 0.782522 -0.522217
63.47430038 7.13069916 29.01409912 0.032424 0.680904 0.731655
63.80110168 7.65799713 29.01460075 -0.610897 0.749810 -0.254146
63.79199982 7.68540192 29.01630020 0.000000 0.000000 0.000000
63.72489929 7.74220276 29.01729965 -0.946832 -0.223348 0.231570
63.86220169 7.74079895 29.01819992 0.545056 0.809140 -0.219558
63.90449905 7.74870300 29.01140022 0.999708 0.023109 0.007033
63.94680023 7.75319672 29.01659966 0.000000 0.000000 0.000000
63.92639923 7.78890228 29.01810074 0.166029 0.423014 0.890783
63.94829941 7.78620148 29.01530075 0.055643 0.897076 -0.438359
63.96350098 7.80879974 29.01009941 0.000000 0.000000 0.000000
63.94240189 7.82150269 29.01289940 0.000000 0.000000 0.000000
63.75949860 7.83309937 29.01659966 -0.713035 -0.473695 0.516909
63.90520096 7.83329773 29.01049995 0.462168 0.562277 0.685744
63.88740158 7.84449768 29.01329994 0.960616 0.115378 0.252794
63.93130112 7.85659790 29.01300049 0.000000 0.000000 0.000000
63.85400009 7.87079620 29.01679993 0.446679 0.613974 -0.650779
63.12379837 6.24800110 29.02799988 0.000000 0.000000 0.000000
63.10100174 6.28569794 29.02739906 0.912583 -0.014361 0.408639
63.16525269 6.29460144 29.02624893 0.625588 0.568256 0.534532
63.20270157 6.29350281 29.02000046 -0.111174 0.893616 0.434846
63.10279846 6.30699921 29.02420044 0.036368 0.893026 0.448533
63.12400055 6.31099701 29.02529907 0.489002 0.606632 -0.626797
63.06990051 6.35479736 29.02249908 0.009278 -0.046388 0.998880
64.01810455 6.36859894 29.02440071 0.000000 0.000000 0.000000
63.23009872 6.39759827 29.02409935 0.738523 -0.366816 -0.565712
64.04070282 6.40190125 29.02420044 -0.883107 0.468942 0.014696
63.12710190 6.41030121 29.02729988 0.365307 0.497269 -0.786940
63.10720062 6.42839813 29.02899933 0.224975 -0.182377 -0.957144
63.19589996 6.42330170 29.02759933 0.816561 0.431361 -0.383609
63.22700119 6.43949890 29.02459908 0.446615 0.430375 -0.784419
64.03389740 6.44619751 29.02869987 0.000000 0.000000 0.000000
