90.95760345 -5.73069763 27.43149948 -0.350983 0.933747 0.070197
90.96859741 -5.70700073 27.43729973 -0.541066 0.839004 -0.057620
91.01290131 -5.70030212 27.43050003 -0.361587 0.863192 -0.352355
91.04800415 -5.70149994 27.43470001 -0.967967 -0.076386 0.239174
90.68489838 -5.67690277 27.43020058 0.472101 0.874314 -0.112677
90.60990143 -5.65219879 27.43740082 0.478234 0.868335 -0.131478
90.68109894 -5.65779877 27.43790054 0.443339 0.895997 0.025296
91.04460144 -5.64680099 27.43265152 -0.715354 0.698750 0.004151
90.62190247 -5.63390350 27.43530083 0.502857 0.860633 0.080288
90.34919739 -5.62270355 27.43849945 0.753709 0.569720 -0.327630
90.58049774 -5.62470245 27.43300056 -0.561022 0.279721 0.779109
91.07640076 -5.62879944 27.43820000 -0.507811 0.825772 -0.245416
91.12180328 -5.62370300 27.43239975 -0.969564 0.221217 -0.104920
90.49810028 -5.59780121 27.43619919 -0.920073 -0.143805 -0.364399
91.09480286 -5.59809875 27.43799973 -0.861960 0.494802 -0.110434
90.32849884 -5.57540131 27.43980026 0.690696 0.719656 -0.070952
90.59030151 -5.56749725 27.43540001 0.362854 0.684661 -0.632121
91.09449768 -5.56040192 27.43659973 -0.980831 0.103824 -0.164897
90.22450256 -5.53500366 27.43479919 -0.282369 0.877308 -0.388069
90.54399872 -5.53769684 27.43680000 0.619184 0.747723 -0.239836
90.55660248 -5.52020264 27.43070030 -0.812834 0.504680 0.290859
91.11039734 -5.52770233 27.43729973 -0.946405 0.118801 -0.300340
90.52700043 -5.51660156 27.43149948 0.563099 0.825971 -0.026287
91.13559723 -5.51519775 27.43740082 -0.965018 -0.119822 -0.233202
90.19820404 -5.50309753 27.43729973 0.977892 0.147864 -0.147864
90.26679993 -5.48419952 27.43950081 0.875267 -0.483595 -0.006661
90.47869873 -5.48919678 27.43289948 -0.584717 0.751322 0.305975
90.51889801 -5.47779846 27.43899918 -0.010796 0.968005 0.250698
90.29940033 -5.45529938 27.43339920 0.625668 -0.779636 0.026594
91.09529877 -5.45200348 27.43440056 -0.773241 -0.541751 -0.329552
90.26460266 -5.44529724 27.43910027 -0.380708 -0.906517 -0.182453
90.22499847 -5.41480255 27.43849945 0.284915 -0.580972 -0.762427
91.06220245 -5.40550232 27.43180084 -0.382655 -0.923783 0.014172
90.31950378 -5.39379883 27.43589973 0.881342 -0.364328 0.300835
90.33989716 -5.38680267 27.43199921 0.994429 0.009739 0.104961
90.28630066 -5.37339783 27.43650055 0.783302 -0.598461 0.168175
90.33689880 -5.36720276 27.43969917 0.386668 -0.880159 0.275332
90.99790192 -5.36229706 27.43390083 -0.597588 -0.402254 0.693599
90.92970276 -5.35949707 27.43239975 -0.043505 -0.963332 -0.264761
90.75399780 -5.34809875 27.43420029 -0.428139 -0.889434 0.160012
90.78590393 -5.34799957 27.43140030 0.157212 -0.887023 0.434136
90.45420074 -5.33159637 27.43910027 0.110651 -0.975967 -0.187734
91.00229645 -5.33580017 27.43160057 0.134455 -0.951833 0.275566
91.03179932 -5.33000183 27.43079948 0.110894 -0.993657 -0.018665
90.35410309 -5.32910156 27.43140030 0.513922 -0.857446 0.025901
90.51519775 -5.32129669 27.43339920 -0.060069 -0.997993 0.020023
90.71459961 -5.32340240 27.43569946 -0.534980 -0.832682 -0.142956
90.41380310 -5.30169678 27.43250084 -0.357163 -0.735528 -0.575702
90.45120239 -5.30280304 27.43379974 0.133002 -0.846243 -0.515930
90.47910309 -5.30750275 27.43199921 0.171665 -0.940726 -0.292518
90.64060211 -5.30410004 27.43499947 -0.176934 -0.975021 -0.134269
90.49770355 -5.29570007 27.43099976 0.121012 -0.948149 -0.293886
90.60690308 -5.29599762 27.43569946 0.684125 -0.269504 -0.677746
90.55500031 -5.28510284 27.43930054 -0.012464 -0.774144 -0.632887
90.62439728 -5.28240204 27.43670082 -0.424688 -0.891125 0.159798
90.52330017 -5.27819824 27.43400002 0.170640 -0.847264 -0.503017
90.60140228 -5.25199890 27.43919945 0.801027 0.180193 -0.570864
90.60690308 -5.20110321 27.43770027 0.624352 -0.732382 -0.271664
90.59130096 -5.18029785 27.43239975 0.461643 -0.806677 -0.368995
90.75189972 -5.83789825 27.44729996 -0.684334 0.648573 -0.333227
90.81890106 -5.81649780 27.44949913 -0.706162 0.223905 -0.671715
90.64859772 -5.77809906 27.44000053 0.778423 -0.304046 0.549194
90.80449677 -5.77709961 27.44400024 -0.730984 0.346770 -0.587718
90.88800049 -5.74990082 27.44820023 0.192191 0.971135 0.141279
90.66950226 -5.73269653 27.44459915 0.872014 -0.319178 -0.371102
90.86560059 -5.72039795 27.44479942 -0.023109 0.999708 0.007033
90.99659729 -5.70439911 27.44939995 -0.703010 0.705933 -0.086232
90.35369873 -5.69309998 27.44919968 0.805674 0.515568 -0.291682
91.06410217 -5.69699860 27.44779968 -0.768450 0.608292 0.198657
90.98960114 -5.68049622 27.44109917 -0.500579 0.860770 0.092175
90.58239746 -5.66490173 27.44540024 -0.764679 -0.326800 0.555399
90.66310120 -5.66680145 27.44289970 0.306850 0.939642 0.151379
91.10410309 -5.65730286 27.44260025 -0.654430 0.744283 -0.133282
90.34390259 -5.64610291 27.44569969 -0.963493 0.174346 0.203186
90.37080383 -5.63610077 27.44269943 0.947954 0.285593 -0.140785
90.59040070 -5.63839722 27.44619942 -0.274853 0.595779 0.754654
90.44699860 -5.61239624 27.44700050 -0.072033 0.941672 0.328734
90.46520233 -5.60189819 27.44899940 -0.694569 0.001381 -0.719425
91.06849670 -5.60520172 27.44790077 -0.522360 0.840190 -0.145672
91.11470032 -5.59960175 27.44309998 -0.927586 0.373344 -0.014113
90.26129913 -5.57779694 27.44339943 0.784992 0.598161 0.161217
90.30290222 -5.57610321 27.44969940 0.457631 0.866070 0.201238
91.11530304 -5.55760193 27.44969940 -0.973303 0.185571 -0.135076
90.56629944 -5.54470062 27.44599915 0.602207 0.685156 -0.409766
90.30439758 -5.53019714 27.44219971 0.842799 0.503276 0.190794
90.25150299 -5.52709961 27.44580078 0.353001 0.934871 0.037498
90.22150421 -5.51540375 27.44949913 0.221134 0.858963 -0.461824
90.48619843 -5.51210022 27.44820023 0.689909 0.280126 0.667499
90.21649933 -5.48529816 27.44820023 0.910277 -0.360947 -0.202763
91.11579895 -5.48970032 27.44499969 -0.921048 -0.188171 -0.340972
90.49810028 -5.47669983 27.44190025 -0.922078 -0.030082 0.385834
90.29910278 -5.43630219 27.44219971 0.699131 -0.693011 -0.175930
91.06749725 -5.43990326 27.44210052 -0.679646 -0.718828 -0.146177
90.31900024 -5.42839813 27.44029999 0.885371 -0.464654 -0.014645
90.26799774 -5.41349792 27.44079971 0.515875 -0.214568 -0.829357
90.30449677 -5.41500092 27.44799995 0.909012 -0.373625 -0.184665
91.09189606 -5.39820099 27.44490051 0.640407 -0.704931 0.304879
90.90850067 -5.38590240 27.44359970 -0.857937 -0.487096 0.163346
91.02000427 -5.38590240 27.44930077 -0.407343 -0.796975 0.445984
90.96479797 -5.37370300 27.44680023 -0.308626 -0.908327 -0.282298
90.30429840 -5.36060333 27.44449997 0.591778 -0.756778 0.277644
90.73279572 -5.36139679 27.44919968 -0.675501 -0.731182 0.095244
90.79239655 -5.36740112 27.44059944 0.161700 -0.983373 0.082646
90.90900421 -5.36419678 27.44529915 -0.453671 -0.853879 -0.255094
90.86750031 -5.35500336 27.44899940 0.118918 -0.987847 0.100080
90.94529724 -5.35050201 27.44939995 0.296652 -0.901762 0.314362
91.05920410 -5.35620117 27.44619942 -0.655334 0.275846 0.703169
90.97489929 -5.34480286 27.44059944 0.292567 -0.954358 -0.060047
90.34860229 -5.33709717 27.44949913 0.475485 -0.879172 0.031157
90.73200226 -5.33589935 27.44689941 -0.731719 -0.680964 0.029607
90.91339874 -5.33769989 27.44510078 -0.339067 -0.939253 0.053263
91.04389954 -5.33029938 27.44989967 -0.308877 -0.923783 -0.226320
90.58689880 -5.32399750 27.44190025 0.013361 -0.963205 -0.268434
90.81980133 -5.32859802 27.44140053 0.309842 -0.380053 -0.871526
90.33039856 -5.31790161 27.44219971 0.664542 -0.677477 0.315293
90.49469757 -5.31150055 27.44820023 0.319434 -0.826122 -0.464202
90.78240204 -5.31449890 27.44300079 0.502238 -0.417169 0.757448
90.98329926 -5.31330109 27.44330025 -0.577161 -0.736490 0.352800
90.51219940 -5.30159760 27.44820023 0.294515 -0.915463 -0.274204
90.65950012 -5.30020142 27.44910049 -0.334085 -0.912587 0.235739
90.86000061 -5.30049896 27.44939995 -0.110985 -0.658512 -0.744341
90.72949982 -5.29840088 27.44350052 -0.096331 -0.985908 0.136767
90.81629944 -5.29879761 27.44409943 -0.101208 -0.932461 -0.346805
90.39630127 -5.28179932 27.44420052 0.138789 -0.777516 -0.613357
90.64790344 -5.28389740 27.44989967 -0.147037 -0.815389 0.559930
90.65019989 -5.25039673 27.44849968 0.783536 -0.369958 0.499201
90.70590210 -5.24459839 27.44379997 -0.879562 -0.464488 -0.103063
90.47200012 -5.23149872 27.44709969 0.818777 -0.573832 -0.017889
90.64589691 -5.22119904 27.44820023 -0.049641 -0.625480 -0.778659
90.66870117 -5.21980286 27.44230080 -0.676080 -0.721454 0.149736
90.63359833 -5.19819641 27.44790077 -0.152513 -0.872954 -0.463348
90.62139893 -5.18099976 27.44759941 -0.038986 -0.954534 -0.295541
90.64769745 -5.18319702 27.44879913 0.290939 -0.939001 -0.183388
90.77770233 -5.83550262 27.45940018 -0.718529 0.573837 -0.392971
90.61759949 -5.80950165 27.45809937 0.918966 0.074219 0.387288
90.77770233 -5.80950165 27.45409966 -0.770948 0.428667 -0.471045
90.90699768 -5.78160095 27.45569992 -0.660824 0.230739 0.714192
90.78410339 -5.76740265 27.45569992 -0.826386 0.404469 -0.391780
90.93180084 -5.74800110 27.45249939 -0.291074 0.835866 0.465408
90.97809601 -5.73509979 27.45560074 -0.619675 0.688710 0.376407
90.83619690 -5.72830200 27.45369911 -0.361297 0.930374 0.062201
90.93569946 -5.72059631 27.45919991 -0.639263 0.751628 -0.162473
90.64569855 -5.71579742 27.45129967 0.984527 0.087327 -0.151926
90.69339752 -5.69950104 27.45249939 0.658221 -0.409523 -0.631693
90.33830261 -5.67449951 27.45089912 -0.093039 0.964799 -0.245979
90.36360168 -5.67140198 27.45509911 -0.900921 0.408474 -0.146595
90.96430206 -5.67980194 27.45700073 -0.552783 0.795696 0.247585
91.00830078 -5.67070007 27.45919991 -0.571901 0.819585 -0.034787
90.62400055 -5.66310120 27.45459938 0.287519 0.812280 0.507478
91.03340149 -5.65249634 27.45009995 -0.591323 0.800538 -0.097343
91.05359650 -5.65619659 27.45030022 -0.961722 0.238799 -0.134406
91.07879639 -5.65670013 27.45750046 -0.420351 0.156376 -0.893785
90.44640350 -5.63760376 27.45520020 -0.194822 0.920071 -0.339872
91.05110168 -5.62809753 27.45299911 -0.793251 0.515533 -0.324004
90.34580231 -5.60440063 27.45229912 0.643626 0.643626 -0.414116
90.37319946 -5.60469818 27.45940018 0.166497 0.861956 -0.478864
91.12139893 -5.57849884 27.45989990 -0.956789 0.285136 0.057027
90.47090149 -5.56629944 27.45170021 -0.954099 0.189210 -0.232151
90.26619720 -5.51290131 27.45280075 0.641584 0.766839 0.018092
91.11070251 -5.50949860 27.45409966 -0.992951 -0.014295 -0.117659
91.11139679 -5.46040344 27.45159912 -0.848852 -0.417443 -0.324333
90.27510071 -5.45619965 27.45730019 0.455605 -0.854830 -0.248373
91.05670166 -5.42289734 27.45389938 -0.585689 -0.807995 -0.064127
91.07939911 -5.42510223 27.45409966 -0.733949 -0.654272 -0.182338
90.99259949 -5.41169739 27.45240021 -0.354496 -0.856055 -0.376169
91.02780151 -5.41290283 27.45059967 -0.388419 -0.917215 0.088587
91.04249573 -5.39880371 27.45560074 -0.692906 -0.707936 -0.136777
90.81130219 -5.37660217 27.45089912 0.003623 -0.962379 0.271688
90.34729767 -5.36859894 27.45879936 0.437589 -0.885288 -0.157417
90.77469635 -5.36190033 27.45549965 -0.065676 -0.951660 0.300050
90.85199738 -5.36969757 27.45100021 0.495306 -0.801090 0.336044
90.32830048 -5.34989929 27.45450020 0.783536 -0.499201 0.369958
90.38079834 -5.34850311 27.45479965 0.451175 -0.868103 -0.206975
90.99690247 -5.34960175 27.45380020 -0.838040 -0.545606 -0.001354
90.43939972 -5.33249664 27.45299911 -0.065670 -0.920727 -0.384641
90.46369934 -5.32060242 27.45409966 0.152450 -0.981781 -0.113423
90.85870361 -5.32260132 27.45759964 -0.329487 -0.868926 -0.369332
90.41449738 -5.31400299 27.45170021 -0.028821 -0.846797 -0.531135
90.69169617 -5.31169891 27.45240021 -0.277895 -0.943200 -0.182069
90.37170410 -5.30449677 27.45829964 0.289951 -0.953068 0.087115
90.53780365 -5.30660248 27.45339966 0.230914 -0.972709 -0.022732
90.47799683 -5.29830170 27.45989990 0.163879 -0.907747 -0.386185
90.69779968 -5.25430298 27.45989990 -0.914295 0.280539 0.292168
90.66030121 -5.20480347 27.45509911 -0.872872 -0.321424 0.367124
90.67400360 -5.18530273 27.45700073 -0.393329 -0.712600 0.580942
90.66950226 -5.82019806 27.46260071 0.659745 0.742769 0.114158
90.75029755 -5.79250336 27.46179962 -0.798179 0.556401 -0.230929
90.78690338 -5.79039764 27.46100044 -0.794233 0.378590 -0.475251
90.64220428 -5.78659821 27.45999908 0.959610 0.102031 0.262181
90.62760162 -5.75440216 27.46260071 0.905594 -0.145972 0.398235
90.80300140 -5.75050354 27.46369934 -0.511873 0.858582 -0.028665
90.84400177 -5.75530243 27.46199989 -0.248258 0.929196 -0.273794
90.65670013 -5.74050140 27.46660042 0.888694 -0.286240 0.358175
90.91020203 -5.74749756 27.46030045 -0.156144 0.979897 -0.124178
90.94049835 -5.74109650 27.46949959 0.020578 0.995338 0.094227
90.66329956 -5.71730042 27.46940041 0.454926 0.314227 -0.833249
90.69329834 -5.71600342 27.46859932 0.727541 -0.038292 -0.684995
90.88020325 -5.71910095 27.46279907 -0.012159 0.991527 -0.129330
90.97409821 -5.71019745 27.46640015 -0.751583 0.656737 -0.061794
90.65019989 -5.69129944 27.46409988 0.788039 0.341858 -0.511984
90.99780273 -5.69149780 27.46629906 -0.389611 0.906238 -0.164122
91.04479980 -5.69830322 27.46570015 -0.093294 0.947397 -0.306163
91.03170013 -5.67590332 27.46540070 -0.604916 0.793684 -0.064353
90.36824799 -5.63685226 27.46469879 -0.840570 0.533080 0.096270
90.47060394 -5.63269806 27.46030045 -0.796654 0.330476 -0.506091
90.60980225 -5.63529968 27.46030045 -0.148834 0.272193 0.950663
90.34249878 -5.62529755 27.46640015 -0.951829 -0.120468 -0.281974
90.41580200 -5.62480164 27.46990013 0.163486 0.982129 -0.093248
91.10130310 -5.62319946 27.46829987 -0.790040 0.411984 -0.453990
90.41960144 -5.60109711 27.46570015 0.295721 0.918899 0.261100
91.08380127 -5.59760284 27.46290016 -0.889655 0.454952 0.039150
90.34700012 -5.58570099 27.46610069 0.417185 0.891061 -0.178794
90.27549744 -5.57790375 27.46750069 0.677620 0.699529 -0.226916
90.27030182 -5.55280304 27.46419907 0.777696 0.566314 0.272904
90.30729675 -5.55519867 27.46949959 0.564506 0.771227 0.294179
90.48359680 -5.55079651 27.46960068 -0.873667 0.290210 0.390491
91.08730316 -5.54920197 27.46339989 -0.982032 0.108303 -0.154545
90.23860168 -5.52549744 27.46479988 0.804019 0.573444 -0.157210
91.08540344 -5.51830292 27.46409988 -0.945500 0.016323 -0.325212
90.23750305 -5.50140381 27.46050072 0.856674 -0.412130 -0.310255
90.49659729 -5.49870300 27.46710014 -0.940420 0.317071 0.122781
91.10369873 -5.49479675 27.46789932 -0.954168 -0.240220 -0.178487
90.24199677 -5.48069763 27.46529961 0.939865 -0.339787 0.034620
90.53260040 -5.48989868 27.46929932 0.763681 0.637622 0.101140
90.25689697 -5.45929718 27.46619987 0.504891 -0.834366 -0.221176
90.29479980 -5.45179749 27.46330070 0.774783 -0.583826 -0.242609
90.51190186 -5.45570374 27.46179962 0.627609 0.765414 -0.142298
90.23639679 -5.42520142 27.46030045 -0.251197 -0.661959 -0.706195
90.28579712 -5.40419769 27.46479988 0.953469 0.219824 -0.206338
91.06379700 -5.39689636 27.46769905 -0.806019 -0.301271 0.509480
90.26619720 -5.37159729 27.46430016 0.842803 -0.437759 -0.313130
90.75129700 -5.36250305 27.46330070 -0.251544 -0.901733 0.351573
90.82250214 -5.36440277 27.46879959 0.006225 -0.947413 0.319954
90.92359924 -5.36289978 27.46640015 -0.177972 -0.926295 0.332121
90.29430389 -5.35610199 27.46129990 0.466401 -0.862767 -0.195203
90.84560394 -5.35220337 27.46579933 0.190946 -0.923612 0.332387
91.01699829 -5.35320282 27.46489906 0.326797 -0.923804 -0.199474
90.87580109 -5.34940338 27.46699905 0.025168 -0.999658 0.007047
90.38829803 -5.33059692 27.46269989 0.220887 -0.945285 -0.240094
90.40789795 -5.33339691 27.46879959 0.304859 -0.833282 -0.461197
90.88760376 -5.33249664 27.46590042 -0.421392 -0.818932 0.389589
90.49220276 -5.32240295 27.46829987 0.183968 -0.947092 -0.263006
90.52169800 -5.32969666 27.46349907 0.090302 -0.928626 -0.359860
90.58139801 -5.32839966 27.46890068 -0.134919 -0.979090 -0.152248
90.67569733 -5.32749939 27.46949959 -0.110920 -0.975849 -0.188191
90.73049927 -5.32230377 27.46980095 -0.635138 -0.766546 0.094906
90.76910400 -5.32150269 27.46500015 0.345998 -0.450272 0.823128
90.79979706 -5.32689667 27.46129990 0.961357 0.274848 -0.015880
91.00559998 -5.32610321 27.46559906 -0.678041 -0.734427 -0.029603
90.66930389 -5.30439758 27.46619987 -0.411333 -0.886062 0.213775
90.70470428 -5.30789948 27.46850014 -0.327387 -0.929223 0.171356
90.55220032 -5.29010010 27.46529961 -0.552091 -0.827412 0.102883
90.98220062 -5.29479980 27.46010017 -0.405555 -0.793337 -0.454028
90.62490082 -5.28880310 27.46279907 -0.749019 -0.661891 0.029511
90.68520355 -5.28869629 27.46349907 -0.536982 -0.684192 0.493488
90.59899902 -5.22949982 27.46500015 0.887025 0.426762 0.176240
90.62899780 -5.22810364 27.46520042 -0.485171 -0.592613 -0.642977
90.68720245 -5.21350098 27.46839905 -0.777097 -0.612394 0.145238
90.60910034 -5.20999908 27.46080017 0.072970 -0.588049 -0.805527
90.58450317 -5.19010162 27.46150017 0.697138 -0.486492 -0.526615
90.75540161 -5.82099915 27.47209930 -0.843584 0.500737 -0.193979
90.76219940 -5.80000305 27.47890091 -0.871938 0.469950 -0.137370
90.78800201 -5.77169800 27.47680092 -0.794699 0.604199 0.058287
90.80470276 -5.73269653 27.47750092 -0.328276 0.943952 -0.034488
90.84490204 -5.73439789 27.47080040 -0.173706 0.968892 0.176279
90.70310211 -5.69419861 27.47750092 0.971241 -0.065574 0.228891
91.06220245 -5.68830109 27.47769928 -0.789440 0.323750 -0.521509
90.31410217 -5.67179871 27.47570038 -0.710608 0.689576 -0.139718
90.68379974 -5.67330170 27.47410011 0.816122 0.526082 0.239128
90.33999634 -5.66600037 27.47389984 -0.808362 0.408183 -0.424190
90.37770081 -5.66919708 27.47410011 0.722320 0.540500 -0.431408
90.65290070 -5.66570282 27.47879982 0.144416 0.975747 0.164508
91.03800201 -5.63739777 27.47100067 -0.770767 0.612661 -0.174829
90.45089722 -5.62969971 27.47419930 -0.600957 0.670874 -0.434487
91.06169891 -5.61499786 27.47990036 -0.731655 0.680904 0.032424
90.46970367 -5.59040070 27.47590065 -0.910032 0.356225 -0.212004
91.10420227 -5.59049988 27.47290039 -0.850179 0.497051 0.173597
90.30500031 -5.58869934 27.47380066 0.525924 0.768658 0.364101
91.12439728 -5.56089783 27.47579956 -0.816731 0.543982 0.192439
90.28489685 -5.55159760 27.47929955 0.866070 0.457631 -0.201238
90.54779816 -5.53240204 27.47279930 0.059494 0.958229 -0.279747
91.11229706 -5.53070068 27.47439957 -0.918483 -0.102662 0.381903
91.13099670 -5.53769684 27.47660065 -0.975231 0.103377 0.195544
90.26519775 -5.52629852 27.47389984 0.799535 0.585930 -0.132020
90.48380280 -5.52690125 27.47229958 -0.875945 0.253919 0.410177
90.59510040 -5.52110291 27.47599983 0.104124 0.415107 -0.903795
90.55590057 -5.51180267 27.47159958 0.535236 0.717514 -0.445754
90.55840302 -5.48760223 27.47439957 0.062843 0.225495 -0.972215
91.09179688 -5.47619629 27.47570038 -0.898493 -0.415890 -0.140523
90.23929596 -5.45030212 27.47299957 0.610122 -0.682874 -0.401788
91.08619690 -5.45249939 27.47139931 -0.877635 -0.479313 0.003983
91.09069824 -5.42230225 27.47710037 -0.655017 -0.557354 0.510206
90.34040070 -5.40239716 27.47909927 0.869489 -0.487420 0.080066
91.04679871 -5.40750122 27.47870064 -0.522856 -0.847682 -0.089755
90.96700287 -5.39569855 27.47299957 -0.483817 -0.773781 0.408882
90.99749756 -5.39150238 27.47920036 -0.691586 -0.703746 -0.162637
90.92729950 -5.38169861 27.47870064 -0.175731 -0.984325 -0.014931
90.30190277 -5.37000275 27.47750092 0.399869 -0.732269 -0.551259
91.04239655 -5.37249756 27.47030067 -0.774720 0.085757 0.626462
90.34470367 -5.36640167 27.47979927 0.701734 -0.707569 -0.083158
90.31890106 -5.35199738 27.47850037 0.480374 -0.862323 -0.160125
90.95099640 -5.35949707 27.47559929 -0.146539 -0.935386 0.321838
90.74359894 -5.34110260 27.47809982 -0.589281 -0.804347 0.075990
90.44079590 -5.33850098 27.47509956 0.202308 -0.955271 -0.215706
90.47630310 -5.33480072 27.47330093 0.203060 -0.972417 -0.114773
90.81590271 -5.33529663 27.47850037 0.575145 -0.688506 -0.441778
90.95529938 -5.33080292 27.47330093 0.530824 -0.785874 0.317219
90.69429779 -5.32499695 27.47960091 -0.085794 -0.991779 -0.094945
90.55459595 -5.31809998 27.47459984 -0.760752 -0.640091 -0.107418
90.61620331 -5.31790161 27.47699928 0.625508 -0.768822 -0.132864
90.43859863 -5.30899811 27.47680092 0.195133 -0.973145 -0.122115
90.63510132 -5.30480194 27.46999931 0.099294 -0.971569 -0.214927
90.50879669 -5.29640198 27.47010040 0.305976 -0.909144 -0.282552
90.73590088 -5.29730225 27.47960091 0.417795 0.159365 0.894455
90.75969696 -5.28820038 27.47360039 -0.001119 -0.987835 0.155503
90.63580322 -5.27230072 27.47270012 0.609542 -0.318514 0.725953
90.67910004 -5.26589966 27.47990036 -0.602883 -0.181628 0.776880
90.66809845 -5.23739624 27.47949982 -0.535178 0.274651 0.798844
90.65100098 -5.20690155 27.47410011 0.118484 -0.991878 0.046265
90.60389709 -5.19999695 27.47870064 0.350311 -0.878052 -0.326047
90.63719940 -5.83090210 27.48450089 0.763922 0.590661 0.259891
90.78289795 -5.83059692 27.48439980 -0.810194 0.555778 -0.186269
90.70649719 -5.82230377 27.48979950 0.648148 0.667839 -0.365917
90.96279907 -5.76689911 27.48690033 -0.047440 0.998339 -0.032681
90.82530212 -5.75379944 27.48390007 -0.157576 0.964992 0.209668
90.91819763 -5.75270081 27.48640060 -0.210787 0.943720 -0.254873
90.68889618 -5.74459839 27.48690033 0.669517 -0.707148 -0.227353
90.78350067 -5.74600220 27.48950005 -0.938269 0.325356 -0.117452
90.87170410 -5.74669647 27.48810005 -0.240111 0.964296 0.111709
90.98079681 -5.74490356 27.48080063 -0.828565 0.099775 -0.550931
90.97840118 -5.71309662 27.48839951 -0.851352 0.452521 -0.265376
90.91590118 -5.70429993 27.48789978 -0.148950 0.922934 -0.354975
90.64800262 -5.69719696 27.48509979 -0.224192 0.570530 -0.790084
91.02120209 -5.66690063 27.48220062 -0.761066 0.575985 -0.298363
90.36550140 -5.64830017 27.48979950 -0.383309 0.919670 0.085330
91.03769684 -5.64800262 27.48909950 -0.784927 0.616830 -0.058407
90.43209839 -5.63189697 27.48810005 0.281482 0.929314 0.239047
90.32640076 -5.61579895 27.48424911 0.528640 0.508502 0.679680
90.39060211 -5.61329651 27.48760033 0.359795 0.245248 -0.900223
90.35880280 -5.60990143 27.48340034 0.282058 0.597580 -0.750561
90.44589996 -5.60890198 27.48789978 -0.206810 0.970610 -0.123071
91.09010315 -5.59809875 27.48590088 -0.797029 0.601665 -0.052380
90.32469940 -5.58059692 27.48789978 0.472171 0.794472 0.381927
90.36779785 -5.58869934 27.48719978 0.146158 0.676546 -0.721750
90.39309692 -5.58930206 27.48340034 0.425099 0.829655 -0.361888
91.08640289 -5.57550049 27.48469925 -0.830599 0.548455 -0.096447
91.10399628 -5.55490112 27.48060036 -0.937837 0.209798 0.276488
91.15390015 -5.53829956 27.48970032 -0.948145 -0.104468 0.300180
91.13230133 -5.51190186 27.48229980 -0.938282 -0.345683 -0.011396
90.24390411 -5.49099731 27.48740005 0.925037 -0.084829 -0.370284
90.29059601 -5.47319794 27.48250008 0.652703 -0.754010 -0.073809
90.28659821 -5.44259644 27.48019981 0.847923 -0.521909 -0.092943
90.32180023 -5.44020081 27.48439980 0.837260 -0.541589 -0.075339
91.05640411 -5.44290161 27.48410034 -0.692231 -0.707312 -0.143272
91.07209778 -5.41739655 27.48690033 0.268173 -0.933691 0.237284
90.29779816 -5.39510345 27.48080063 0.799433 -0.435908 -0.413389
91.10030365 -5.38159943 27.48679924 -0.776391 -0.630214 -0.006895
90.28310394 -5.37950134 27.48850060 0.776619 -0.539630 -0.325059
91.01439667 -5.36399841 27.48699951 -0.176307 -0.694495 -0.697562
90.38369751 -5.35690308 27.48189926 0.257679 -0.965373 -0.040686
90.40380096 -5.35119629 27.48299980 -0.137075 -0.829821 -0.540932
90.89949799 -5.35310364 27.48719978 -0.593288 -0.780320 -0.197763
91.05670166 -5.35600281 27.48920059 -0.967675 -0.174414 0.182166
91.08119965 -5.35350037 27.48629951 -0.816122 -0.526082 0.239128
90.55870056 -5.34860229 27.48100090 -0.194236 -0.867388 -0.458159
90.78980255 -5.34470367 27.48839951 -0.027289 -0.999603 -0.007075
90.83750153 -5.34510040 27.48870087 -0.028289 -0.998487 0.047148
90.91799927 -5.33180237 27.48710060 -0.260877 -0.965365 -0.003607
90.99729919 -5.32980347 27.48959923 -0.551256 -0.649033 -0.524283
90.71630096 -5.31680298 27.48660088 -0.291359 -0.948579 -0.123728
90.68180084 -5.30919647 27.48929977 -0.701001 -0.639481 0.315693
90.63210297 -5.29450226 27.48990059 0.877154 -0.218916 0.427408
90.78649902 -5.29109955 27.48180008 0.382171 -0.420229 0.823015
90.96939850 -5.29900360 27.48810005 -0.304017 -0.891083 -0.336964
90.65560150 -5.26429749 27.48270035 -0.060459 -0.399028 0.914943
90.63150024 -5.24880219 27.48040009 0.919484 0.201003 0.337857
90.68820190 -5.24109650 27.48769951 -0.910089 0.239497 -0.338199
90.61229706 -5.22059631 27.48800087 -0.132093 -0.919089 -0.371251
90.70320129 -5.19950104 27.48929977 -0.858987 -0.511593 -0.020355
90.65329742 -5.16960144 27.48469925 -0.028179 -0.998774 -0.040702
90.74710083 -5.81529999 27.49699974 -0.347308 0.937605 0.016538
90.62819672 -5.80930328 27.49819946 0.946686 0.155305 0.282250
90.65509796 -5.80870056 27.49729919 0.498743 0.774920 0.388272
90.78410339 -5.79530334 27.49099922 -0.850347 0.525093 0.034455
90.63559723 -5.77249908 27.49679947 0.947964 -0.021345 0.317662
90.81340027 -5.77420044 27.49799919 -0.690252 0.714003 0.117269
90.86460114 -5.76529694 27.49519920 -0.467351 0.604709 0.644911
90.84410095 -5.75360107 27.49200058 0.107071 0.971194 0.212882
90.93160248 -5.73090363 27.49830055 -0.220712 0.924142 -0.311845
90.87519836 -5.72419739 27.49790001 -0.443174 0.869933 0.216364
90.69400024 -5.71160126 27.49360085 0.959567 0.154005 0.235614
90.94640350 -5.71320343 27.49419975 -0.319434 0.646975 -0.692377
90.99349976 -5.69029999 27.49530029 -0.431274 0.899515 0.069825
91.02770233 -5.69930267 27.49959946 0.034273 0.979731 0.197364
90.67449951 -5.67539978 27.49510002 0.611999 0.691179 -0.384355
90.66719818 -5.65280151 27.49379921 0.900369 0.427503 -0.081102
91.05459595 -5.65969849 27.49230003 -0.897212 0.422467 -0.128577
90.34099579 -5.64710236 27.49970055 0.797903 0.401369 0.449727
91.04660034 -5.63040161 27.49300003 -0.770335 0.637566 0.009681
91.10639954 -5.61250305 27.49119949 -0.759802 0.618013 -0.201895
90.31430054 -5.59780121 27.49600029 0.786754 0.426632 0.446098
90.34210205 -5.59680176 27.49119949 -0.029725 0.999368 0.019475
90.29219818 -5.58350372 27.49670029 0.862638 0.505777 0.006708
91.13020325 -5.55690002 27.49880028 -0.855192 0.518010 -0.017675
90.27729797 -5.53959656 27.49510002 0.777258 0.557909 -0.290875
90.50650024 -5.52159882 27.49740028 0.424132 -0.640356 0.640356
90.53720093 -5.52690125 27.49869919 0.649575 0.035226 0.759481
90.21990204 -5.51100159 27.49150085 0.898950 -0.297675 -0.321371
90.24610138 -5.51679993 27.49370003 0.898949 0.411721 -0.149587
91.09770203 -5.51709747 27.49710083 -0.963408 -0.010907 0.267815
90.27059937 -5.49759674 27.49869919 0.841648 -0.495890 0.213824
90.53969574 -5.48619843 27.49329948 0.487083 0.220022 0.845187
90.25930023 -5.47989655 27.49440002 0.694314 -0.694314 -0.189358
90.50180054 -5.46769714 27.49180031 0.493779 0.770817 0.402520
91.09719849 -5.46050262 27.49760056 -0.832682 -0.534980 0.142956
91.16000366 -5.45850372 27.49390030 -0.672682 -0.679104 -0.293797
91.07340240 -5.44719696 27.49930000 -0.890953 -0.450266 0.058849
91.02269745 -5.41799927 27.49259949 -0.574448 -0.818485 -0.009597
91.13059998 -5.41799927 27.49230003 -0.658884 -0.737287 0.149267
90.31890106 -5.40399933 27.49099922 0.603272 -0.599892 -0.525540
91.01720428 -5.38710022 27.49230003 -0.831894 -0.418315 -0.364644
90.91629791 -5.37190247 27.49449921 -0.067550 -0.984805 -0.159986
90.98629761 -5.37940216 27.49799919 -0.582015 -0.812015 -0.043476
90.32649994 -5.36660004 27.48999977 0.635655 -0.581700 -0.507512
90.42440033 -5.35929871 27.49519920 0.405823 -0.664225 -0.627784
90.96779633 -5.35800171 27.49869919 -0.567132 -0.463408 -0.680892
90.99320221 -5.35130310 27.49679947 -0.395384 -0.539757 -0.743191
90.32640076 -5.34690094 27.49950027 0.658345 -0.741944 0.126892
90.41310120 -5.34149933 27.49799919 0.093735 -0.820540 -0.563851
90.76190186 -5.34929657 27.49830055 -0.264732 -0.963225 0.045986
90.35479736 -5.33010101 27.49349976 0.673985 -0.708229 0.210134
90.57599640 -5.33860016 27.49099922 0.070821 -0.700982 -0.709654
90.59680176 -5.33950043 27.49510002 0.539465 -0.583434 -0.607110
90.87180328 -5.33740234 27.49279976 0.384009 -0.922924 -0.027336
91.05439758 -5.33370209 27.49200058 0.404543 -0.889996 -0.210363
90.50309753 -5.32460022 27.49139977 0.250568 -0.834714 -0.490375
90.56189728 -5.32379913 27.49869919 -0.513932 -0.773329 -0.371263
90.74620056 -5.32839966 27.49889946 -0.563565 -0.683970 -0.463227
90.41339874 -5.31410217 27.49270058 -0.177606 -0.873352 -0.453556
90.47329712 -5.31500244 27.49609947 0.136098 -0.930687 -0.339557
90.89489746 -5.30490112 27.49160004 0.076938 -0.985996 0.147959
90.61180115 -5.29789734 27.49780083 0.912526 0.060477 0.404522
90.52709961 -5.28790283 27.49010086 0.501674 -0.862990 -0.059756
90.66040039 -5.28109741 27.49990082 -0.653626 0.686064 0.319514
90.60369873 -5.27230072 27.49550056 0.861942 -0.036999 0.505655
90.70300293 -5.26239777 27.49200058 -0.575130 -0.763123 0.294734
90.61979675 -5.20269775 27.49580002 0.756281 -0.616517 -0.218964
90.67109680 -5.18070221 27.49090004 -0.411789 -0.911166 -0.014380
90.76290131 -5.82520294 27.50919914 -0.526222 0.832060 -0.175407
90.68859863 -5.80729675 27.50950050 0.215807 0.873648 0.436080
90.61060333 -5.79660034 27.50489998 0.965779 0.008440 0.259229
90.86640167 -5.78669739 27.50149918 0.597207 0.733157 0.325308
90.79710388 -5.76550293 27.50679970 -0.904262 0.426389 -0.022442
90.87960052 -5.75910187 27.50830078 -0.336321 0.726259 -0.599529
90.94599915 -5.75720215 27.50769997 -0.505820 0.462701 -0.728049
90.83519745 -5.74710083 27.50889969 -0.162994 0.986057 -0.033524
90.89640045 -5.74259949 27.50320053 -0.485248 0.872896 0.050862
90.82260132 -5.72550201 27.50659943 -0.059799 0.975096 -0.213569
90.79430389 -5.71640015 27.50429916 -0.992549 0.071464 0.098688
90.68379974 -5.69190216 27.50530052 0.892213 0.422324 0.159993
90.32099915 -5.67530060 27.50379944 -0.055280 0.907398 -0.416621
91.00980377 -5.67500305 27.50219917 -0.576928 0.807109 0.125419
91.03450012 -5.67469788 27.50639915 -0.866220 0.467788 -0.175605
90.65540314 -5.66970062 27.50289917 0.304859 0.833282 -0.461197
90.31909943 -5.64440155 27.50749969 0.891948 0.441073 0.099416
90.64730072 -5.64759827 27.50460052 -0.529016 0.211911 -0.821728
90.40529633 -5.62509918 27.50580025 -0.421302 0.859456 0.289550
91.07630157 -5.62670135 27.50709915 -0.668120 0.743757 -0.021010
90.40519714 -5.60269928 27.50060081 0.324618 0.916144 0.235168
91.09490204 -5.58159637 27.50880051 -0.849522 0.523755 0.063188
90.38439941 -5.57559967 27.50620079 0.251376 0.963397 -0.093150
91.11869812 -5.57599640 27.50189972 -0.880912 0.472255 0.031123
91.11599731 -5.54209900 27.50749969 -0.933324 0.357581 0.032273
91.13220215 -5.52469635 27.50639915 -0.993592 -0.077642 -0.082143
91.12270355 -5.50229645 27.50209999 -0.876504 -0.372172 0.305333
90.51399994 -5.49050140 27.50810051 0.637011 0.453097 0.623635
91.10779572 -5.48449707 27.50690079 -0.767374 -0.551802 0.326576
90.30529785 -5.46459961 27.50749969 0.844534 -0.535459 0.006778
90.23509979 -5.45490265 27.50300026 0.756173 -0.576361 0.309854
90.28659821 -5.45639801 27.50779915 0.850523 -0.502649 0.154775
90.29969788 -5.41490173 27.50399971 0.960090 -0.265339 0.088446
91.09230042 -5.41739655 27.50110054 -0.936480 -0.120618 0.329327
91.04769897 -5.40889740 27.50970078 -0.507034 -0.842065 0.183968
91.10800171 -5.40489960 27.50699997 -0.052636 -0.986050 -0.157908
90.29010010 -5.39610291 27.50270081 0.869469 -0.493986 0.001331
90.33670044 -5.39849854 27.50110054 0.877770 -0.477670 -0.036744
91.00499725 -5.39939880 27.50429916 -0.408766 -0.910618 0.060708
90.88079834 -5.38130188 27.50539970 -0.358449 -0.893891 -0.269208
91.06980133 -5.38770294 27.50959969 -0.328521 -0.739576 -0.587453
90.34300232 -5.37670135 27.50390053 0.764298 -0.613591 -0.198379
91.03790283 -5.37480164 27.50729942 -0.928436 0.365264 0.067740
90.34960175 -5.34989929 27.50460052 0.183478 -0.851754 0.490766
90.52010345 -5.34200287 27.50460052 0.026427 -0.950099 -0.310827
90.81159973 -5.34359741 27.50449944 0.179748 -0.980772 0.076001
91.02909851 -5.34249878 27.50489998 -0.083770 -0.847639 -0.523918
90.61650085 -5.32209778 27.50309944 0.706641 -0.669037 -0.230324
90.70279694 -5.32160187 27.50659943 -0.259820 -0.965565 -0.013293
90.85559845 -5.32150269 27.50460052 0.379675 -0.878849 -0.288916
90.88999939 -5.32330322 27.50180054 0.109253 -0.973235 0.202182
90.93579865 -5.32250214 27.50609970 -0.376220 -0.694939 -0.612795
90.96720123 -5.32160187 27.50130081 -0.404220 -0.886915 -0.223580
90.53749847 -5.31909943 27.50449944 -0.149491 -0.693095 -0.705175
90.37339783 -5.29789734 27.50629997 0.203038 -0.940605 -0.272099
90.71900177 -5.29119873 27.50040054 -0.237653 -0.835619 0.495239
90.67440033 -5.24359894 27.50760078 -0.403175 -0.652048 0.642093
90.60880280 -5.23919678 27.50609970 0.992660 -0.118676 -0.023291
90.69830322 -5.23079681 27.50259972 -0.913643 -0.378690 0.147816
90.63649750 -5.22509766 27.50819969 0.087049 -0.952347 0.292330
90.66210175 -5.21119690 27.50219917 -0.441207 -0.862705 -0.247137
90.72090149 -5.82460022 27.51589966 -0.182946 0.674900 -0.714871
90.64710236 -5.81469727 27.51840019 0.684258 0.690550 -0.234378
90.74909973 -5.80549622 27.51490021 -0.726497 0.631114 -0.271840
90.77459717 -5.80829620 27.51210022 -0.856234 0.471004 -0.212177
90.61750031 -5.78140259 27.51880074 0.809239 0.154070 0.566916
90.79409790 -5.78869629 27.51199913 -0.795893 0.576756 -0.184136
90.88430023 -5.78330231 27.51950073 -0.729024 0.684247 0.018191
90.76770020 -5.76760101 27.51059914 -0.668663 0.467561 -0.578167
90.85399628 -5.73750305 27.51490021 -0.103960 0.989376 -0.101624
90.90869904 -5.72280121 27.51110077 -0.252494 0.962552 0.098690
90.95289612 -5.72899628 27.51339912 -0.579013 0.488385 -0.652858
90.95569611 -5.69979858 27.51810074 -0.316879 0.897080 -0.307953
90.61789703 -5.68150330 27.51779938 -0.681391 0.298008 -0.668504
90.98239899 -5.68409729 27.51309967 -0.389618 0.890345 -0.235549
90.37709808 -5.65709686 27.51899910 -0.391688 0.880922 -0.265627
90.40260315 -5.65630341 27.51219940 -0.440154 0.834883 -0.330507
91.02510071 -5.65799713 27.51309967 -0.644937 0.737734 0.199513
91.03350067 -5.63960266 27.51899910 -0.704091 0.691925 0.159675
90.42279816 -5.62090302 27.51490021 -0.200916 0.978111 -0.054139
90.65200043 -5.62899780 27.51549911 -0.234512 0.507342 -0.829221
90.30020142 -5.60540009 27.51499939 0.968556 0.231090 0.092183
90.46910095 -5.60440063 27.51600075 -0.686171 0.695507 0.213164
90.30960083 -5.57920074 27.51779938 0.866091 0.496299 0.059778
91.10479736 -5.55609894 27.51959991 -0.881065 0.472993 -0.001325
90.24030304 -5.52619934 27.51079941 0.662894 0.718782 -0.209580
90.26869965 -5.50199890 27.51869965 0.983205 0.178871 -0.036242
91.15950012 -5.47270203 27.51810074 -0.817662 0.574460 0.037738
90.25170135 -5.46790314 27.51619911 0.291074 0.835866 -0.465408
90.47619629 -5.46479797 27.51160049 0.511771 0.432784 0.742151
91.09040070 -5.46459961 27.51659966 -0.919694 -0.368712 0.134963
90.27429962 -5.44170380 27.51460075 0.838418 -0.538473 0.084270
91.03140259 -5.42040253 27.51269913 -0.475780 -0.731076 -0.489042
91.06210327 -5.42209625 27.51689911 -0.117298 -0.986965 0.110189
90.27809906 -5.41069794 27.51679993 0.959428 -0.062103 0.275028
90.42289734 -5.38120270 27.51840019 0.331473 -0.861831 -0.383892
90.32299805 -5.37139893 27.51370049 0.770490 -0.559921 0.304686
90.58820343 -5.37439728 27.51239967 0.395104 -0.769071 -0.502416
90.98079681 -5.37079620 27.51589966 -0.566321 -0.753482 -0.333984
90.86029816 -5.36219788 27.51600075 -0.370947 -0.775911 -0.510255
90.88310242 -5.36070251 27.51619911 -0.507514 -0.784632 -0.356065
90.92990112 -5.36170197 27.51950073 0.316071 -0.934410 -0.164246
90.39800262 -5.35690308 27.51099968 -0.237189 -0.971404 0.010727
90.58139801 -5.35260010 27.51409912 0.429447 -0.714640 -0.552146
90.61699677 -5.35829926 27.51939964 0.758528 -0.480019 -0.440700
90.76280212 -5.35070038 27.51930046 -0.188397 -0.970179 -0.152512
90.78189850 -5.35649872 27.51149940 0.047109 -0.995857 -0.077784
90.95040131 -5.35109711 27.51049995 0.170158 -0.921105 -0.350160
91.05850220 -5.35690308 27.51420021 -0.930832 -0.173922 -0.321408
90.45839691 -5.34559631 27.51729965 0.448421 -0.822370 -0.350181
90.98270416 -5.34590149 27.51759911 -0.562277 -0.462168 -0.685744
90.48699951 -5.33090210 27.51530075 -0.205612 -0.913032 -0.352272
90.56790161 -5.33509827 27.51989937 -0.650967 -0.758285 -0.035302
90.72039795 -5.33989716 27.51490021 -0.412911 -0.880976 -0.231051
91.05010223 -5.33249664 27.51790047 -0.855657 0.077531 -0.511703
90.37909698 -5.32730103 27.51560020 0.582273 -0.249545 0.773748
90.45809937 -5.32089996 27.51499939 -0.133856 -0.905994 -0.401568
90.59989929 -5.31469727 27.51889992 0.811267 -0.321028 -0.488658
90.63349915 -5.31340027 27.51810074 0.870651 -0.469483 -0.146804
90.55249786 -5.28679657 27.51129913 0.743559 -0.657133 -0.123678
90.58879852 -5.26370239 27.51829910 0.271989 0.184515 -0.944445
90.70120239 -5.25959778 27.51790047 -0.889655 -0.454952 -0.039150
90.72869873 -5.25990295 27.51609993 -0.900036 -0.430214 -0.069654
90.59429932 -5.22219849 27.51689911 0.743397 -0.574959 -0.341736
90.67479706 -5.22190094 27.51539993 -0.511577 -0.771426 -0.378405
90.70909882 -5.20120239 27.51639938 -0.241160 -0.714022 -0.657278
90.63520050 -5.19149780 27.51079941 0.360822 -0.867509 -0.342397
90.66559601 -5.19809723 27.51810074 -0.341336 -0.811267 -0.474695
90.70510101 -5.83689880 27.52499962 -0.395231 0.808064 -0.436835
90.62149811 -5.81549835 27.52120018 0.778638 0.594345 0.201187
90.61209869 -5.79889679 27.52799988 0.781478 0.188105 0.594902
90.74559784 -5.77200317 27.52449989 -0.934615 0.217189 -0.281646
90.64659882 -5.75440216 27.52470016 0.594800 -0.739873 -0.314325
90.81140137 -5.75260162 27.52280045 -0.054775 0.987116 -0.150340
90.59629822 -5.74610138 27.52930069 0.820889 0.570023 0.034843
90.90460205 -5.74060059 27.52519989 0.057544 0.985294 -0.160888
90.92800140 -5.74579620 27.52939987 -0.015989 0.996671 -0.079947
90.67970276 -5.73570251 27.52370071 0.919384 -0.386330 -0.074035
90.78604889 -5.72484970 27.52679825 -0.322761 0.929160 -0.180243
90.88539886 -5.71610260 27.52490044 -0.333695 0.932422 0.138696
91.02709961 -5.70760345 27.52470016 -0.046887 0.637942 0.768656
90.99120331 -5.69599915 27.52829933 -0.076492 0.992111 0.099325
90.64119720 -5.68080139 27.52190018 0.575531 0.758290 -0.306202
90.67539978 -5.68979645 27.52720070 0.882138 0.440342 -0.167127
91.04239655 -5.68710327 27.52759933 -0.538861 0.559132 0.630079
90.34950256 -5.67340088 27.52199936 -0.100317 0.993022 -0.061993
90.31680298 -5.66110229 27.52169991 0.645485 0.632142 -0.428656
90.33809662 -5.63690186 27.52149963 0.855794 0.506022 0.107512
90.63469696 -5.63150024 27.52939987 -0.535357 0.102454 -0.838389
90.38880157 -5.62349701 27.52070045 0.713145 -0.196463 -0.672924
90.60610199 -5.62010193 27.52910042 -0.259107 0.305428 -0.916284
90.44300079 -5.61730194 27.52799988 -0.315978 0.942600 0.107992
90.48970032 -5.61239624 27.52930069 -0.740731 0.384265 0.551052
91.08850098 -5.61049652 27.52009964 -0.763479 0.643156 0.058729
90.47789764 -5.58090210 27.52490044 -0.778481 0.534504 0.329049
91.12570190 -5.56649780 27.52580070 -0.921240 0.388506 0.019490
90.29350281 -5.55020142 27.52140045 0.827296 0.487653 -0.278881
91.10019684 -5.53410339 27.52729988 -0.957959 0.190526 -0.214508
91.14150238 -5.53739929 27.52759933 -0.984912 0.121165 0.123564
90.47129822 -5.52220154 27.52720070 0.697482 0.136497 0.703482
90.24680328 -5.49919891 27.52949905 0.988362 0.131859 -0.075848
90.48750305 -5.49179840 27.52300072 0.629214 0.116960 0.768381
91.10919952 -5.47740173 27.52580070 -0.881641 -0.411829 0.230446
91.13400269 -5.45680237 27.52969933 0.009425 -0.863105 0.504937
90.30560303 -5.44640350 27.52540016 0.918171 -0.391593 0.060142
91.10610199 -5.41290283 27.52809906 -0.446815 -0.805549 -0.389162
91.07879639 -5.40550232 27.52090073 0.201673 -0.945257 0.256550
90.93450165 -5.39309692 27.52079964 -0.612060 -0.678408 0.406381
91.02980042 -5.39749908 27.52549934 -0.276945 -0.955656 0.100116
90.55850220 -5.38359833 27.52930069 -0.242077 -0.921038 -0.305103
90.99639893 -5.38790131 27.52619934 -0.562438 -0.794850 -0.227764
91.02829742 -5.37470245 27.52720070 -0.001273 -0.372926 -0.927860
90.91139984 -5.36979675 27.52440071 -0.305974 -0.929203 0.207273
90.37879944 -5.35469818 27.52890015 0.405813 -0.909297 -0.092168
90.48040009 -5.35040283 27.52650070 -0.001241 -0.946931 -0.321435
90.51309967 -5.35340118 27.52070045 -0.068715 -0.859644 -0.506251
90.74490356 -5.34310150 27.52709961 -0.322761 -0.929160 -0.180243
90.89880371 -5.34829712 27.52109909 0.118225 -0.976910 0.177959
90.35589600 -5.33370209 27.52350044 -0.020686 0.261619 0.964949
90.87020111 -5.33689880 27.52079964 -0.037399 -0.838015 -0.544364
90.31839752 -5.32569885 27.52750015 0.053642 -0.935464 0.349327
90.73979950 -5.32379913 27.52890015 -0.534574 -0.758802 -0.372089
90.69540405 -5.31189728 27.52249908 -0.462450 -0.881325 -0.096988
90.94599915 -5.31809998 27.52809906 -0.354559 -0.622520 -0.697680
90.36730194 -5.30870056 27.52330017 0.822972 -0.540122 -0.176029
90.53800201 -5.30310059 27.52140045 0.743704 -0.657607 -0.120240
90.68689728 -5.29119873 27.52420044 -0.984214 0.147812 -0.097340
90.63210297 -5.28330231 27.52779961 0.555188 0.163115 -0.815573
90.61270142 -5.26959991 27.52650070 0.689114 0.351923 -0.633461
90.63649750 -5.23429871 27.52729988 0.350980 -0.625234 -0.697062
90.65229797 -5.22190094 27.52720070 0.073058 -0.594493 -0.800775
90.69409943 -5.20939636 27.52739906 0.049746 -0.950278 0.307405
90.64880371 -5.17549896 27.52569962 0.323375 -0.865910 -0.381613
90.63040161 -5.82389832 27.53829956 0.669491 0.694934 0.262389
90.75139618 -5.82029724 27.53610039 -0.602279 0.796927 -0.046546
90.68060303 -5.81330109 27.53560066 0.264392 0.956285 0.124962
90.75939941 -5.79740143 27.53689957 -0.813427 0.463224 -0.351795
90.85189819 -5.76219940 27.53709984 0.133572 0.926745 -0.351144
90.88330078 -5.74810028 27.53219986 -0.182513 0.980250 -0.076148
90.83689880 -5.73860168 27.53179932 -0.013349 0.999109 -0.040046
90.85960388 -5.72399902 27.53680038 -0.057098 0.986987 0.150320
90.90989685 -5.72280121 27.53809929 -0.075871 0.988664 -0.129565
90.96089935 -5.68199921 27.53599930 -0.189210 0.954099 0.232151
91.00520325 -5.67880249 27.53019905 -0.388901 0.919824 0.051765
90.67990112 -5.66899872 27.53210068 0.766837 0.617433 -0.175321
90.35199738 -5.65499878 27.53980064 0.901412 0.372545 -0.220605
91.05879974 -5.65879822 27.53840065 -0.641442 0.683879 0.347652
90.29889679 -5.64620209 27.53440094 0.966511 0.243203 0.081908
91.06449890 -5.62310028 27.53800011 -0.878212 0.411428 0.243865
90.31569672 -5.61660004 27.53019905 0.960469 0.276367 -0.033462
90.29470062 -5.60610199 27.53790092 0.925073 0.378142 -0.035328
90.34020233 -5.60679626 27.53619957 0.773342 0.601147 0.201407
91.11070251 -5.58769989 27.53899956 -0.749843 0.648068 0.133206
91.07630157 -5.57649994 27.53059959 -0.945127 0.321938 -0.055596
90.30750275 -5.56839752 27.53459930 0.674964 0.351373 -0.648815
90.31579590 -5.54049683 27.53940010 0.553793 0.700141 -0.450684
90.26959991 -5.53690338 27.53210068 0.643838 0.765161 -0.001379
90.29620361 -5.53399658 27.53720093 0.564617 0.810234 -0.157254
90.46330261 -5.50219727 27.53689957 0.668456 0.104769 0.736335
91.12829590 -5.50550079 27.53019905 -0.957051 0.288238 -0.031195
90.23120117 -5.47470093 27.53420067 0.877109 0.469020 -0.103439
90.46730042 -5.47129822 27.53269958 0.576531 0.295452 0.761787
90.27369690 -5.46890259 27.53739929 0.749248 -0.592689 0.295546
90.25319672 -5.45349884 27.53910065 0.418510 -0.470620 -0.776767
90.28900146 -5.45570374 27.53339958 0.148834 -0.950663 0.272193
91.07849884 -5.45529938 27.53339958 -0.778940 -0.611490 0.139043
91.09989929 -5.45349884 27.53849983 -0.828057 -0.535626 0.165611
91.16899872 -5.45220184 27.53190041 -0.001063 -0.995717 -0.092452
90.22570038 -5.44380188 27.53680038 0.619109 -0.739447 0.264428
90.24870300 -5.43150330 27.53879929 0.548585 -0.829391 -0.105664
90.30329895 -5.42700195 27.53614998 0.985628 -0.101550 -0.135001
91.03669739 -5.42140198 27.53980064 -0.123381 -0.988226 -0.090480
90.32659912 -5.41979980 27.53420067 0.759287 -0.624846 -0.181801
90.29520416 -5.39469910 27.53980064 0.954462 -0.286209 -0.084179
91.05039978 -5.39260101 27.53560066 -0.738446 -0.507165 -0.444389
90.97139740 -5.38960266 27.53400040 -0.376684 -0.923613 -0.071047
90.94339752 -5.37539673 27.53370094 -0.215483 -0.973982 -0.070186
90.28530121 -5.36430359 27.53639984 0.971350 0.091495 -0.219337
90.53520203 -5.36759949 27.53199959 -0.360870 -0.875529 0.321281
90.85700226 -5.36640167 27.53800011 0.454248 -0.390043 0.800953
90.34179688 -5.35440063 27.53459930 0.552609 -0.814608 -0.176172
90.43669891 -5.35440063 27.53520012 0.311074 -0.943903 -0.110812
90.45800018 -5.35620117 27.53940010 0.334986 -0.938755 -0.080767
90.82789612 -5.35050201 27.53569984 -0.100423 -0.912062 -0.397565
90.61109924 -5.34519958 27.53630066 0.600957 -0.670874 -0.434487
90.80249786 -5.34420013 27.53549957 0.018341 -0.995814 -0.089548
90.94280243 -5.34850311 27.53540039 -0.325448 -0.600702 -0.730233
90.50949860 -5.33650208 27.53549957 0.235000 -0.957259 -0.168616
90.72109985 -5.33550262 27.53790092 -0.432537 -0.812404 -0.391039
90.88749695 -5.33039856 27.53089905 0.702876 -0.446983 -0.553328
90.28749847 -5.32859802 27.53100014 -0.185287 -0.076295 0.979718
90.45279694 -5.32389832 27.53899956 -0.239497 -0.910089 -0.338199
90.62210083 -5.32520294 27.53310013 0.743206 -0.430104 -0.512499
90.70249939 -5.32489777 27.53960037 -0.622541 -0.551683 -0.555057
90.86019897 -5.31929779 27.53459930 0.457693 -0.839363 0.293234
90.65059662 -5.30110168 27.53310013 0.459742 0.823112 -0.333352
90.58560181 -5.27729797 27.53540039 0.509456 -0.071576 -0.857515
90.68499756 -5.26020050 27.53479958 -0.692650 -0.559127 -0.455647
90.60639954 -5.23919678 27.53109932 0.784241 -0.510482 -0.352667
90.67910004 -5.23429871 27.53549957 -0.788149 -0.485139 -0.378763
90.67569733 -5.21040344 27.53529930 -0.112002 -0.880424 0.460770
90.58550262 -5.82039642 27.54599953 0.842201 0.414069 0.345318
90.72570038 -5.82830048 27.54199982 -0.434005 0.869512 -0.235774
90.61019897 -5.80339813 27.54899979 0.855907 0.348244 0.382295
90.73629761 -5.79650116 27.54969978 -0.888905 0.418909 -0.185371
90.62310028 -5.78450012 27.54490089 0.843190 0.377011 0.383268
90.59980011 -5.77210236 27.54759979 0.974563 -0.032366 0.221764
90.75879669 -5.77040100 27.54260063 -0.752294 0.246577 -0.610945
90.81159973 -5.75090027 27.54770088 0.168033 0.979989 -0.106707
90.77190399 -5.74069977 27.54540062 -0.347305 0.819893 -0.455143
90.86440277 -5.74449921 27.54899979 -0.128358 0.984878 -0.116362
91.01709747 -5.74220276 27.54400063 0.523538 0.270364 0.807967
90.88320160 -5.73490143 27.54800034 -0.135144 0.990684 0.016753
91.04699707 -5.71839905 27.54089928 -0.942455 0.268290 0.199498
91.00099945 -5.68720245 27.54829979 -0.093594 0.986887 0.131506
91.03199768 -5.67810059 27.54439926 -0.618912 0.777683 0.110258
91.07910156 -5.66829681 27.54560089 -0.685497 0.262429 0.679135
90.32409668 -5.63359833 27.54140091 0.754315 0.644218 -0.126463
90.39119720 -5.62159729 27.54870033 0.027570 0.993640 -0.109179
90.41390228 -5.62740326 27.54089928 -0.178602 0.981710 0.065927
90.45960236 -5.62660217 27.54920006 -0.245000 0.957487 0.152297
91.08940125 -5.61190033 27.54809952 -0.879960 0.475046 0.001323
90.46620178 -5.60350037 27.54400063 -0.598083 0.780704 0.181099
90.58209991 -5.60669708 27.54280090 -0.185335 0.310749 -0.932248
90.62370300 -5.60500336 27.54700089 -0.136108 0.626693 -0.767288
90.35700226 -5.58660126 27.54010010 0.542014 0.303591 0.783615
90.60859680 -5.57199860 27.54260063 0.218324 0.420311 -0.880723
90.27159882 -5.56980133 27.54240036 0.884529 0.376938 0.274820
90.47840118 -5.56490326 27.54170036 -0.903562 -0.033268 0.427163
91.12280273 -5.56569672 27.54780006 -0.797034 0.579249 0.170901
91.11830139 -5.52700043 27.54840088 -0.989995 0.032886 0.137216
90.25959778 -5.51930237 27.54680061 0.652098 0.661953 -0.369577
91.11460114 -5.49150085 27.54199982 -0.973367 -0.201689 0.108987
90.21659851 -5.46489716 27.54800034 0.999225 0.027842 0.027842
