84.35040283 8.59700012 27.21080017 0.420292 -0.832714 0.360475
84.31719971 9.02320099 27.56110001 0.260547 0.937691 0.229894
84.14240265 9.03700256 27.52090073 -0.732085 0.662362 -0.159149
84.61199951 9.23590088 27.06080055 -0.642769 0.764796 -0.043986
84.42759705 8.35489655 26.82970047 -0.896049 -0.277879 -0.346235
84.07879639 8.63629913 27.63360023 -0.861931 -0.506939 -0.009413
84.12049866 8.86299896 27.61459923 -0.822382 -0.548751 0.150200
84.18849945 8.66870117 27.33499908 0.124961 -0.973185 0.193122
84.72740173 8.87989807 26.88120079 0.747439 -0.268189 0.607790
84.08699799 8.79280090 27.67309952 -0.172520 0.190680 0.966374
84.34390259 8.62950134 27.04039955 0.624851 -0.766383 0.149061
84.45079803 8.51779938 27.39719963 -0.871385 -0.390831 -0.296545
84.71510315 8.50859833 27.17000008 -0.315297 -0.716290 0.622509
84.30280304 8.73690033 27.50600052 -0.842982 -0.499154 0.200566
84.11669922 8.88390350 27.50029945 -0.669283 0.703928 -0.237792
84.44159698 8.51159668 27.04319954 -0.809627 -0.568081 0.147611
84.15799713 8.62349701 27.11219978 -0.586050 -0.766130 0.263801
84.28369904 8.67749786 27.35250092 0.726871 -0.566074 0.388868
84.31729889 8.57669830 27.67779922 -0.694338 -0.719485 0.015368
84.64769745 8.56230164 27.45899963 0.405822 -0.787392 0.464028
84.12590027 8.85260010 27.22970009 -0.604529 -0.796310 -0.020846
84.29479980 8.54489899 27.70100021 -0.117649 0.386166 -0.914896
84.35399628 8.56529999 27.07410049 -0.480645 -0.873009 -0.082677
84.48909760 8.36660004 27.56010056 -0.621733 -0.766955 0.158837
84.63909912 9.25669861 27.06170082 0.637658 0.580454 0.506425
84.54989624 9.27749634 26.84790039 -0.344667 0.690967 0.635428
84.64769745 8.43389893 27.18530083 0.779228 -0.572270 0.255562
84.45899963 8.46189880 26.94179916 -0.880945 -0.133216 0.454081
84.12039948 8.78669739 27.01829910 -0.954486 0.294563 0.046776
84.70110321 8.83399963 27.57559967 0.958720 0.190148 -0.211424
84.20709991 8.80319977 27.28669930 -0.827081 0.502432 0.251989
84.28120422 8.92720032 27.67790031 -0.693430 0.687197 -0.216599
84.56449890 8.46410370 27.53249931 0.315384 -0.929331 0.192034
84.17060089 8.83830261 27.13909912 -0.974177 -0.010627 -0.225537
84.20089722 9.03079987 27.47130013 0.503410 0.863573 0.028649
84.56179810 8.42359924 27.38890076 0.255351 -0.953220 0.161767
84.49430084 8.41049957 27.57360077 -0.876347 -0.480840 -0.028444
84.67839813 8.51229858 27.56970024 0.478251 -0.609140 0.632633
84.43710327 9.09570313 27.53319931 -0.942304 -0.216606 -0.255236
84.72450256 8.50869751 27.33609962 0.973785 0.222475 -0.047413
84.22689819 9.00109863 27.38879967 0.637783 0.696206 0.329440
84.11419678 8.56739807 26.88349915 -0.757590 -0.607013 -0.239982
84.45490265 9.14009857 27.03179932 0.852481 0.361800 0.377328
84.50790405 9.17800140 27.23270035 -0.404741 0.845425 0.348484
84.07970428 8.64040375 27.46660042 -0.951242 -0.246918 -0.184851
84.52970123 9.15129852 27.54920006 0.682369 0.721022 0.120418
84.25450134 8.99140167 27.38509941 0.104507 0.760990 0.640291
84.08149719 9.06719971 26.96610069 -0.614656 0.781889 0.104154
84.50460052 9.17019653 27.57579994 -0.013316 0.964790 0.262684
84.42099762 8.58689880 27.42230034 -0.613391 -0.726088 -0.310721
84.49189758 9.21430206 27.41830063 -0.038049 -0.384430 0.922370
84.28620148 9.02709961 27.39389992 -0.081494 0.979146 -0.186098
84.38290405 8.63919830 27.38850021 -0.789737 -0.524896 0.317490
84.10659790 8.97229767 27.57830048 -0.986605 -0.001125 -0.163122
84.49839783 8.44490051 27.47430038 -0.640382 0.290499 -0.711000
84.12229919 9.01640320 27.15189934 -0.020583 0.832928 0.552998
84.67530060 8.51349640 27.29269981 0.485254 -0.872350 0.059447
84.40660095 9.18049622 27.11009979 -0.175731 0.984325 -0.014931
84.37460327 8.97229767 27.65699959 0.318205 0.715557 0.621872
84.19830322 8.61239624 27.02359962 -0.951522 -0.123076 -0.281883
84.50839996 9.20880127 27.21039963 -0.288949 0.926630 0.240554
84.57890320 8.68309784 27.11230087 0.357675 0.173889 -0.917514
84.03959656 8.67539978 27.14500046 -0.939932 0.308777 0.145547
84.54299927 8.29109955 27.01609993 -0.042962 -0.998614 -0.030388
84.61550140 8.46769714 27.58279991 -0.103131 -0.966376 -0.235546
84.25650024 8.52850342 26.93880081 0.024939 -0.914875 0.402965
84.45999908 9.09320068 27.58329964 -0.972604 -0.096384 -0.211545
84.14399719 8.73870087 27.65900040 -0.608677 -0.615422 -0.500768
84.57150269 9.22319794 27.06069946 0.742529 0.521911 0.419833
84.20040131 8.84539795 27.29719925 -0.674491 -0.736970 -0.044019
84.48049927 8.33889771 26.84020042 -0.535611 0.804198 -0.257656
84.30970001 9.11669922 26.97310066 0.508178 0.845976 0.161491
84.51200104 9.20490265 26.94350052 -0.920908 0.381577 -0.079551
84.04759979 8.77639771 27.37599945 -0.903086 0.229054 0.363277
84.52149963 8.27639771 26.94409943 -0.179616 -0.710789 0.680086
84.72969818 8.47080231 26.94350052 0.383680 -0.915570 -0.120506
84.53150177 9.28019714 26.86680031 -0.435141 0.868776 0.236391
83.95189667 8.81870270 27.54990005 -0.687353 0.077018 -0.722229
84.08519745 9.11720276 26.89760017 -0.083039 0.665769 0.741523
84.67449951 8.98899841 27.15780067 0.546125 0.751533 0.370061
84.44400024 8.48549652 27.18350029 -0.418791 -0.900611 -0.116253
84.11450195 8.67310333 27.04540062 -0.719565 -0.554148 0.418506
84.41899872 8.49690247 27.19120026 -0.940762 0.234151 0.245235
84.19010162 8.84290314 27.08720016 -0.570273 -0.680649 0.459898
84.43399811 9.02030182 27.21089935 -0.906238 -0.389611 0.164122
84.13200378 9.07540131 26.86440086 0.331128 0.941033 -0.069367
84.05319977 8.88279724 27.02289963 -0.496423 -0.135388 0.857458
84.35589600 9.02189636 27.15539932 0.035773 0.996222 0.079134
84.05539703 8.59850311 26.94879913 -0.862189 -0.443975 0.243959
84.70890045 8.81420135 27.17079926 0.520888 0.591689 0.615289
84.62419891 9.04959869 27.66580009 -0.697737 0.422619 -0.578409
84.52069855 9.31210327 26.84140015 -0.349270 0.447255 0.823392
84.19989777 8.64530182 27.18330002 -0.608872 -0.734181 -0.300420
83.99359894 8.68779755 26.82649994 -0.691581 0.279507 0.666026
84.66049957 9.05950165 27.65200043 -0.383405 0.887649 -0.255106
84.48919678 9.01570129 27.49629974 0.230049 0.153804 0.960948
84.12500000 8.97679901 27.48940086 -0.987315 0.144057 0.066758
84.23899841 8.77010345 27.52330017 0.239516 -0.523845 -0.817446
84.64929962 9.09549713 26.94549942 0.845188 0.288940 -0.449634
84.67620087 8.46910095 26.96910095 0.063267 -0.968852 0.239422
84.66310120 8.45989990 26.91309929 0.875821 -0.348805 0.333574
84.09750366 9.08119965 26.98110008 -0.603284 0.679733 0.417147
84.04440308 8.85970306 27.62010002 0.692683 0.704808 0.153087
84.51219940 8.51629639 27.45859909 -0.492528 -0.783201 0.379489
84.70690155 8.48059845 27.15119934 -0.203340 -0.871243 0.446753
84.34099579 8.98020172 27.39369965 0.311007 0.950368 0.008674
84.70590210 8.49130249 27.03510094 0.034459 -0.943158 0.330552
84.04070282 8.65689850 27.20420074 -0.969672 -0.223188 0.099615
84.28839874 8.58640289 27.32649994 0.055638 -0.943260 -0.327359
84.39410400 9.01229858 27.43770027 -0.698460 0.689209 0.192732
84.44920349 9.20469666 26.82410049 -0.470637 -0.266951 -0.840974
84.54180145 8.53869629 27.62159920 -0.882978 0.360738 -0.300363
84.48370361 8.99829865 27.60449982 -0.950762 0.280574 0.131644
84.64270020 8.45680237 27.59810066 0.424918 -0.872358 0.241738
84.65280151 8.73470306 27.25729942 0.794646 0.167373 -0.583544
84.09490204 9.09269714 26.91200066 -0.750976 0.451900 0.481479
84.54109955 8.49340057 27.63710022 -0.551270 -0.814067 -0.182750
84.02410126 8.95069885 26.85099983 -0.709684 -0.230295 0.665818
84.43530273 8.64420319 27.14679909 0.265610 -0.717307 -0.644145
84.62660217 8.69950104 26.96439934 0.695407 -0.701468 0.156050
84.48609924 8.54219818 27.11619949 -0.394557 0.751459 0.528804
84.48190308 8.56759644 27.58790016 -0.104689 -0.925885 0.363012
84.67079926 8.56310272 27.06809998 -0.107586 -0.655829 -0.747203
84.63739777 8.68650055 27.64069939 0.164704 -0.966178 0.198423
84.41829681 8.53309631 26.93680000 -0.885976 -0.463577 -0.011955
83.98040009 8.99890137 26.86619949 -0.854770 0.291084 0.429695
84.41290283 8.52120209 27.00289917 -0.858906 -0.512118 -0.004032
84.71279907 8.89350128 26.98299980 0.977086 0.186523 0.102526
84.68170166 8.54049683 27.23649979 -0.296282 -0.949418 -0.104028
84.37200165 8.99490356 27.44879913 -0.279520 0.916769 -0.285313
84.61100006 9.23940277 27.09970093 -0.177731 0.791436 0.584842
84.07050323 9.06590271 26.86809921 -0.687573 0.275987 -0.671620
84.01029968 9.02449799 26.98509979 0.169041 0.972302 0.161415
84.08650208 8.90139771 27.25790024 -0.847483 -0.063245 0.527042
84.15950012 8.87069702 27.57670021 -0.736062 -0.325161 -0.593703
84.20459747 8.79419708 27.26580048 -0.593020 0.760647 0.264091
84.69940186 8.87190247 27.31310081 0.999028 -0.003068 -0.043970
84.34760284 9.00530243 27.36050034 0.443872 0.466802 0.764901
84.04949951 8.78990173 26.91679955 -0.959610 0.102031 0.262181
84.44680023 9.18650055 27.39830017 -0.943704 0.307409 0.122158
84.66320038 8.73889923 27.26129913 0.583512 -0.361222 -0.727347
84.11560059 8.97129822 27.60740089 -0.933196 -0.006348 0.359312
84.15149689 9.10449982 26.95219994 -0.143415 0.987583 -0.064129
84.51339722 8.38780212 26.96590042 0.326047 -0.715356 0.618029
84.06030273 8.54609680 26.88439941 -0.759955 0.175140 0.625935
84.26139832 8.58229828 27.16930008 -0.614852 -0.779993 0.116483
84.11479950 8.68029785 27.36639977 -0.767167 -0.389284 0.509816
84.59989929 9.11190033 27.62800026 0.003993 0.877023 0.480433
84.50589752 8.38269806 26.94090080 -0.987455 0.123874 -0.097920
84.20089722 8.89309692 27.38069916 0.768922 -0.553816 -0.319448
84.45739746 9.15290070 27.22970009 -0.970239 0.232311 0.068327
84.48169708 8.99770355 27.64850044 0.330860 -0.232614 0.914561
84.57089996 9.11280060 27.65979958 0.111317 0.891947 0.438223
84.14900208 8.93550110 27.59399986 -0.947882 -0.314251 -0.052589
84.27369690 8.79570007 27.60820007 -0.909526 -0.258405 0.325561
84.28240204 8.59760284 27.13229942 -0.604221 -0.795769 0.040845
84.48550415 9.19239807 26.83440018 -0.513637 0.830658 -0.214904
84.69950104 8.51090240 27.60289955 0.758179 -0.649664 0.055685
84.35720062 9.23560333 26.86520004 -0.472263 0.702554 0.532339
84.11419678 9.08480072 26.99220085 -0.914209 0.388643 0.114795
84.18740082 8.80460358 27.51160049 0.421606 0.473696 0.773215
84.06829834 8.98380280 27.10790062 -0.902805 0.019827 0.429593
84.07320404 8.76409912 27.12019920 -0.508788 0.843007 -0.174570
84.12229919 9.03669739 26.99270058 -0.471893 0.276947 0.837029
84.25700378 8.63760376 27.32970047 -0.030552 -0.990111 0.136918
84.40730286 8.53399658 27.65180016 0.288731 -0.744959 0.601391
83.99420166 8.85099792 27.67390060 -0.420985 -0.536550 0.731359
84.65270233 8.53569794 26.87030029 0.896438 -0.171781 0.408522
84.47370148 9.19429779 26.99729919 -0.642876 0.682135 0.348429
84.49099731 8.38970184 27.51079941 -0.740382 -0.623563 -0.251004
84.25319672 8.49829865 26.88509941 -0.513779 -0.447698 0.731846
84.11569977 8.95970154 27.45750046 -0.949038 -0.028988 0.313825
84.01529694 8.61859894 26.90940094 -0.944922 -0.018924 0.326749
84.23699951 8.60549927 27.05890083 -0.394460 -0.825356 -0.403965
84.25520325 9.04979706 27.45949936 0.912266 -0.054924 0.405898
84.30139923 9.16130066 26.81959915 0.369269 0.860598 0.350729
84.58909607 9.24960327 27.13349915 0.156644 0.822008 0.547508
84.08879852 8.99629974 27.15290070 -0.829619 0.557248 0.034741
84.27000427 8.59290314 27.10630035 -0.417070 -0.835713 0.357263
84.12699890 9.16699982 26.86240005 -0.804006 0.422063 -0.418853
84.50900269 8.49530029 27.37980080 -0.687808 -0.665362 -0.290194
84.09290314 9.08280182 26.88209915 -0.961327 0.232135 0.148199
84.47409821 8.96320343 27.48579979 -0.049132 -0.568523 0.821199
84.45739746 9.39649963 26.77510071 -0.072157 0.412519 0.908087
84.83380127 8.81150055 26.72159958 0.269523 -0.222042 0.937046
84.78749847 9.29530334 26.71129990 0.172880 -0.305652 0.936317
83.99330139 8.58979797 26.78750038 -0.987018 -0.003369 0.160573
83.82150269 8.54660034 26.69989967 -0.281143 -0.182400 0.942172
83.99760437 8.73359680 26.78409958 -0.635107 0.668099 0.387663
84.83450317 9.01129913 26.73150063 0.223639 -0.118848 0.967399
83.84770203 8.61900330 26.69429970 -0.093211 -0.300637 0.949173
84.04319763 8.32350159 26.68059921 -0.744990 0.302803 0.594390
84.48130035 8.41380310 26.81949997 -0.051648 -0.841730 -0.537423
84.37979889 8.30509949 26.72089958 -0.629792 -0.525108 0.572385
83.94999695 8.59059906 26.69820023 -0.307647 -0.219748 0.925777
83.91429901 8.43450165 26.66460037 -0.043801 -0.402174 0.914515
84.40519714 8.36579895 26.76449966 0.491558 -0.729889 0.475007
83.85040283 9.04640198 26.69289970 0.913934 -0.009075 0.405761
84.57859802 8.21649933 26.68110085 0.903616 -0.419487 -0.086648
84.60070038 9.52890015 26.65859985 -0.141031 0.158504 0.977234
84.31739807 8.26730347 26.69890022 -0.396360 -0.142464 0.906974
84.41200256 9.23519897 26.80150032 -0.161711 0.618130 0.769262
83.98929596 9.20629883 26.79310036 0.116704 0.898476 0.423226
84.97589874 8.95880127 26.71500015 0.091003 0.133550 0.986855
84.72309875 8.34690094 26.70569992 0.016844 0.144859 -0.989309
84.41619873 8.32980347 26.66390038 0.436567 -0.502464 0.746283
83.95230103 8.70800018 26.76099968 -0.272546 0.930610 0.244303
84.10929871 8.29229736 26.69230080 0.487451 0.365186 0.793114
84.40550232 8.10479736 26.66320038 0.423491 -0.854681 -0.300293
84.50479889 8.25599670 26.75919914 0.021463 -0.945651 0.324476
84.01210022 8.53240204 26.74819946 -0.924532 0.237900 0.297731
83.73329926 8.91950226 26.68840027 -0.001147 -0.193909 0.981019
84.77739716 8.39569855 26.78450012 0.502416 0.769071 0.395104
84.45719910 9.31310272 26.75600052 -0.066688 0.195213 0.978491
84.96279907 9.06870270 26.68869972 0.284458 0.132213 0.949528
84.54589844 8.20079803 26.70610046 0.177013 -0.156638 0.971664
84.71179962 8.55460358 26.80150032 0.840894 0.541061 0.012266
83.84619904 9.17769623 26.68750000 0.275966 0.152118 0.949054
83.97499847 8.73930359 26.77890015 -0.958801 0.195484 0.206122
84.38259888 8.25990295 26.67340088 -0.768470 0.375299 0.518270
84.71030426 9.01840210 26.79560089 0.991361 0.044186 -0.123495
83.72540283 8.60250092 26.67670059 -0.743247 -0.641685 0.189274
84.97930145 9.01119995 26.66139984 0.512110 0.006721 0.858893
83.71939850 8.75710297 26.72800064 -0.166703 0.043133 0.985063
83.97380066 8.84919739 26.72669983 -0.367098 0.096177 0.925197
83.71769714 9.08540344 26.71059990 -0.350416 0.281824 0.893188
84.97029877 9.26529694 26.67169952 0.449658 -0.197375 0.871120
84.71489716 9.49299622 26.69269943 -0.087056 0.354922 0.930834
83.92379761 8.66529846 26.79330063 -0.388313 -0.508544 0.768502
83.97380066 8.58119965 26.72750092 -0.737719 0.073917 0.671049
83.81959534 9.16359711 26.72550011 -0.344740 0.157715 0.925354
84.43910217 9.50710297 26.69879913 -0.207306 0.790835 0.575851
83.87339783 8.89510345 26.69659996 0.021794 -0.355111 0.934570
83.82070160 8.83630371 26.67189980 0.460620 -0.587918 0.664967
84.37360382 9.38839722 26.70669937 0.027793 0.116732 0.992774
84.64890289 9.22260284 26.80909920 -0.491753 -0.296937 0.818540
84.45429993 9.27860260 26.79430008 -0.545010 0.195839 0.815237
83.87910461 8.67030334 26.72699928 -0.306222 -0.333109 0.891777
84.69290161 8.28459930 26.67810059 0.488544 -0.179677 0.853839
84.52610016 9.43379974 26.73220062 0.703243 -0.052994 0.708972
84.03350067 8.44100189 26.70330048 0.883232 -0.467910 0.031014
84.77200317 9.15969849 26.71159935 0.165648 0.372354 0.913188
83.95700073 9.01869965 26.72279930 -0.027201 0.090306 0.995543
84.42710114 8.42070007 26.72800064 -0.118668 -0.813099 0.569902
84.24849701 9.18090057 26.81299973 0.459144 0.859578 0.224303
84.33709717 8.45410156 26.77309990 -0.746086 0.067826 0.662386
84.73539734 8.40209961 26.69420052 -0.503455 -0.001335 0.864020
84.29710388 8.37539673 26.70369911 -0.093215 0.126253 0.987609
84.13089752 9.18129730 26.77529907 -0.568425 0.538064 0.622400
83.92710114 8.58560181 26.71010017 -0.010646 -0.228301 0.973532
84.02860260 8.52870178 26.74740028 0.638117 0.677487 0.365810
84.90650177 8.84819794 26.71769905 0.121080 0.535378 0.835889
84.77950287 8.77580261 26.73460007 0.229960 0.045019 0.972158
83.79650116 8.61750031 26.71299934 0.018304 -0.269675 0.962777
84.44509888 9.38970184 26.76009941 0.027811 0.419820 0.907181
84.48899841 8.30680084 26.78759956 -0.702413 -0.185978 0.687043
84.11219788 8.54080200 26.77379990 -0.380411 0.852432 -0.358674
84.23670197 8.22270203 26.67390060 -0.217529 -0.135151 0.966652
84.27670288 9.19819641 26.76899910 -0.542470 0.673468 0.502162
84.12480164 9.28209686 26.71419907 -0.202552 0.430239 0.879697
84.51290131 9.49359894 26.69449997 0.210363 0.404543 0.889996
83.88619995 9.11489868 26.73539925 -0.909345 -0.115583 0.399666
84.38960266 9.26470184 26.79400063 -0.367747 0.450530 0.813501
83.93199921 8.95760345 26.79730034 -0.286469 -0.333966 0.897999
84.70120239 9.46800232 26.71489906 -0.004019 0.507777 0.861479
83.87660217 8.72450256 26.73040009 -0.393173 0.328415 0.858813
84.55290222 8.16010284 26.70450020 -0.150781 -0.565803 0.810637
83.94750214 8.77700043 26.74329948 -0.724177 -0.166180 0.669292
84.14630127 8.23239899 26.65819931 -0.114740 0.012020 0.993323
83.94740295 9.21420288 26.72069931 -0.038811 0.982038 0.184647
84.12950134 8.30529785 26.69529915 -0.105744 -0.543205 0.832914
84.71389771 8.53459930 26.80470085 0.969874 0.178560 -0.165714
83.61489868 8.92849731 26.70759964 0.520158 0.334502 0.785839
84.31970215 8.40319824 26.72750092 -0.773039 -0.621695 0.126120
84.63939667 9.30449677 26.73920059 0.931755 0.362705 0.016661
84.53410339 8.26589966 26.73130035 -0.263330 -0.171502 0.949339
84.66210175 8.29209900 26.74889946 0.639790 0.410463 0.649761
84.25569916 8.15200043 26.68969917 0.136430 0.114698 0.983987
84.19200134 8.28910065 26.68390083 -0.150269 -0.369352 0.917060
84.15270233 8.52380371 26.75819969 -0.938282 -0.011396 0.345683
84.76940155 8.78240204 26.81349945 0.918074 -0.243571 0.312751
84.43759918 8.21810150 26.69020081 -0.643790 -0.499232 0.579915
83.97789764 8.34590149 26.67589951 0.253027 0.132413 0.958355
84.21510315 8.39430237 26.78300095 -0.568080 0.137941 0.811331
84.14640045 8.45359802 26.77890015 -0.939500 0.246358 0.238007
84.08489990 8.92600250 26.81259918 -0.413751 -0.495520 0.763722
84.14830017 9.10379791 26.79920006 0.884348 0.044967 0.464657
84.09149933 8.34999847 26.71260071 -0.317997 0.140574 0.937612
84.00589752 8.99040222 26.78940010 -0.877293 0.436427 -0.199721
83.74009705 9.03910065 26.69919968 0.237306 -0.050412 0.970126
84.84639740 9.37409973 26.69079971 0.087049 0.292330 0.952347
84.46910095 9.52690125 26.66379929 -0.417693 0.905229 0.078061
84.32640076 9.32659912 26.72900009 -0.157891 0.273948 0.948696
84.64510345 8.28330231 26.73180008 0.144183 -0.139254 0.979704
84.93240356 9.27999878 26.65029907 0.377954 -0.132493 0.916295
84.03220367 9.09249878 26.78459930 -0.261156 -0.748647 0.609364
83.93070221 8.99500275 26.73390007 -0.563413 0.115609 0.818047
84.62080383 9.48239899 26.65730095 -0.212690 0.157886 0.964280
84.66590118 8.23590088 26.71750069 0.447507 -0.878980 0.164718
84.93460083 8.99019623 26.68440056 0.347807 0.253884 0.902537
84.50270081 8.24259949 26.66239929 -0.616887 -0.020888 0.786775
84.89800262 9.22059631 26.68569946 -0.200604 0.278078 0.939378
84.47689819 9.26360321 26.80960083 -0.407507 -0.871065 0.274196
84.29869843 8.17929840 26.68670082 -0.300799 -0.696503 0.651463
83.81769562 8.53220367 26.68799973 -0.337498 -0.286947 0.896525
84.05920410 8.50679779 26.75580025 0.215214 -0.385042 0.897455
83.81500244 9.06099701 26.71949959 -0.250400 0.480829 0.840299
84.90879822 8.60269928 26.69720078 0.112582 -0.084727 0.990024
83.65900421 8.99320221 26.69120026 -0.076176 0.134773 0.987944
83.91529846 9.19400024 26.73679924 -0.077018 0.005275 0.997016
84.82710266 8.68060303 26.74589920 0.134716 0.985931 0.098951
83.82199860 8.52169800 26.67309952 -0.493131 -0.376719 0.784159
83.93370056 9.01249695 26.74279976 -0.313843 -0.122574 0.941530
84.47360229 8.26969910 26.78590012 -0.664569 -0.644780 0.377633
84.40110016 8.24199677 26.66769981 0.245659 -0.282578 0.927255
83.95520020 8.49130249 26.82130051 0.528471 0.114381 0.841210
84.31520081 9.41310120 26.72500038 0.431388 0.890007 0.147618
83.68180084 8.98169708 26.70050049 -0.063606 0.085924 0.994269
84.63349915 9.38259888 26.74139977 -0.416008 0.704397 0.575119
84.19169617 8.49430084 26.77479935 -0.622458 -0.372818 0.688152
84.15450287 8.42600250 26.72620010 -0.489223 -0.360902 0.793984
84.68489838 9.29260254 26.78459930 0.447460 0.813708 0.371025
84.63559723 9.40160370 26.73719978 -0.244540 0.874643 0.418568
84.34290314 8.43180084 26.78039932 -0.043198 -0.553217 0.831916
83.77290344 9.08239746 26.69300079 -0.138967 0.141426 0.980146
84.43630219 8.33740234 26.71400070 -0.802743 -0.311914 -0.508246
84.12239838 8.57330322 26.76449966 -0.743620 -0.554038 0.374261
84.69309998 9.28530121 26.73880005 -0.117111 0.662640 0.739725
83.86450195 8.94809723 26.73800087 -0.399166 -0.858437 0.322107
83.99320221 8.73120117 26.81110001 -0.438907 0.170605 0.882188
84.24130249 8.46479797 26.81739998 -0.624817 0.171787 0.761638
83.81529999 9.06809998 26.70639992 -0.168049 0.776657 0.607094
84.61810303 9.46070099 26.67250061 -0.227895 0.503205 0.833576
84.19950104 8.18240356 26.67810059 0.022321 -0.408351 0.912552
84.66989899 9.42970276 26.75810051 0.360259 0.317697 0.877087
84.44010162 9.44419861 26.73550034 -0.226101 0.914485 0.335551
84.16760254 8.41480255 26.76539993 0.004965 -0.010923 0.999928
84.72609711 8.35530090 26.74659920 0.729720 -0.621140 -0.285820
84.10549927 8.46389771 26.75449944 0.195382 0.475777 0.857591
84.11019897 8.50299835 26.70120049 0.207551 -0.339238 0.917518
84.47440338 9.26190186 26.80360031 -0.271969 -0.955175 0.116933
83.75630188 8.66760254 26.70820045 -0.312753 -0.755418 0.575786
83.77339935 9.05560303 26.70229912 -0.409702 -0.284811 0.866618
84.35510254 8.36070251 26.65519905 0.127840 -0.135145 0.982544
84.48909760 8.39040375 26.82080078 -0.734301 0.165712 -0.658287
84.21649933 9.21269989 26.81349945 -0.636066 0.649352 0.416847
84.00090027 8.38230133 26.70369911 -0.474792 -0.176013 0.862318
83.98539734 9.08580017 26.74230003 0.767362 0.466307 0.440129
83.78559875 8.70909882 26.72800064 -0.512633 -0.536163 0.670624
84.09429932 8.39769745 26.76919937 -0.946065 -0.198523 0.256026
83.99800110 8.81109619 26.79529953 -0.855851 -0.411734 0.313041
83.84729767 8.44300079 26.67810059 -0.109186 -0.466523 0.877744
84.29730225 8.23739624 26.66609955 -0.109063 0.335268 0.935789
83.76989746 8.93460083 26.69350052 -0.035163 0.134979 0.990224
83.83609772 9.08940125 26.69230080 0.256844 0.001195 0.966452
84.00810242 8.55909729 26.80190086 -0.736314 -0.664624 0.126951
85.05220032 9.08290100 26.68309975 -0.999261 -0.007145 -0.037766
83.77980042 9.15550232 26.68530083 -0.789561 0.599234 0.132337
84.72830200 9.24859619 26.74939919 0.359040 -0.693488 0.624631
83.98200226 8.55719757 26.75379944 -0.851881 -0.428260 0.301483
84.08869934 8.50890350 26.75000000 0.114105 -0.712785 0.692039
84.04000092 8.36199951 26.68820000 -0.459892 -0.152330 0.874811
84.01470184 8.28630066 26.66979980 -0.219035 0.005857 0.975699
84.37899780 9.35579681 26.75900078 -0.357112 0.262277 0.896483
84.60430145 8.37159729 26.76169968 0.956400 -0.191280 0.220708
83.89189911 8.56449890 26.71910095 -0.040515 -0.367252 0.929239
84.18409729 9.16120148 26.81380081 -0.354900 0.639474 0.681996
84.61830139 9.39900208 26.74110031 -0.453274 0.843121 0.289291
84.58699799 9.50379944 26.67580032 -0.064849 0.211678 0.975186
84.32679749 8.29530334 26.66469955 0.317348 -0.362901 0.876124
83.79710388 9.06500244 26.72229958 0.021564 0.333605 0.942466
84.21289825 9.35780334 26.75099945 -0.843341 0.504806 0.184247
83.86899567 8.73629761 26.73220062 0.019282 0.019282 0.999628
83.97160339 8.41909790 26.68510056 0.061806 0.143436 0.987728
84.92870331 9.14080048 26.69779968 -0.003988 0.477264 0.878751
83.84310150 8.76580048 26.71369934 0.215514 0.242968 0.945791
83.99559784 8.41300201 26.68440056 0.015174 0.201926 0.979283
83.90599823 9.04669952 26.80820084 -0.670988 0.725515 0.152979
83.88109589 8.75460052 26.72710037 -0.513747 -0.120116 0.849492
83.99710083 9.05079651 26.76479912 -0.874326 0.199719 -0.442341
84.11280060 9.11109924 26.81290054 0.873648 0.436080 -0.215807
84.05560303 8.37660217 26.69109917 -0.454843 -0.393769 0.798789
84.08090210 9.30259705 26.70669937 -0.120208 0.654465 0.746476
84.19660187 9.26049805 26.72890091 -0.138039 0.571454 0.808941
84.89420319 8.72039795 26.69989967 -0.094964 -0.083522 0.991971
83.81369781 8.62039948 26.73310089 0.304054 -0.731982 0.609717
84.84490204 8.92440033 26.74349976 0.665988 -0.001379 0.745961
83.68569946 8.88439941 26.68849945 -0.457500 0.188034 0.869101
84.83180237 8.72350311 26.71949959 0.831938 -0.522030 0.188051
84.52849579 9.49140167 26.67760086 0.067945 0.288448 0.955082
84.65689850 9.47039795 26.69759941 -0.086864 0.420532 0.903110
83.75890350 8.61699677 26.69969940 -0.352163 0.434282 0.829084
84.78530121 8.36849976 26.68889999 -0.418336 0.806219 -0.418336
83.72570038 8.81420135 26.70750046 0.009025 0.017048 0.999814
84.80979919 8.69660187 26.72859955 0.381171 0.135434 0.914531
84.91930389 9.18329620 26.69129944 0.089607 -0.284404 0.954508
84.64830017 8.41230011 26.81049919 -0.458263 -0.006603 0.888792
84.60309601 9.51770020 26.68779945 0.156473 0.126903 0.979496
84.02860260 8.90830231 26.75139999 0.289285 -0.746388 0.599348
83.85589600 9.12339783 26.68510056 0.140900 -0.218460 0.965620
83.99029541 8.88279724 26.76149940 -0.751476 -0.202142 0.628030
84.11100006 8.39569855 26.70829964 -0.554726 0.182893 0.811683
84.62509918 9.46459961 26.71949959 -0.417854 0.499786 0.758691
84.25129700 9.23049927 26.75849915 -0.356996 -0.130945 0.924882
84.61419678 8.38400269 26.77260017 0.598371 0.460930 -0.655359
84.50399780 8.36340332 26.75609970 -0.352453 0.881890 -0.313124
84.72450256 9.37750244 26.72900009 0.595217 -0.409523 0.691381
84.49580383 9.24320221 26.77790070 -0.533446 0.424444 0.731630
84.78489685 9.08370209 26.70940018 0.166415 -0.005660 0.986039
84.85680389 9.05829620 26.70719910 0.331705 0.365335 0.869771
84.05870056 8.49459839 26.75390053 0.443975 -0.243959 0.862189
84.32350159 9.26609802 26.77759933 -0.436487 0.410716 0.800494
83.82659912 8.42890167 26.70210075 -0.856294 0.476715 0.198756
84.06829834 8.91670227 26.81459999 -0.556344 0.617221 0.556344
83.95320129 8.32510376 26.64999962 0.308657 -0.130741 0.942145
84.77210236 9.23570251 26.71279907 0.670428 -0.169516 0.722351
84.26010132 9.27999878 26.75909996 -0.437335 0.298254 0.848400
84.16200256 8.40869904 26.76149940 -0.173628 -0.107132 0.978967
84.54529572 9.39440155 26.77470016 -0.113881 0.974869 -0.191470
83.96579742 8.74449921 26.72369957 -0.573217 -0.389262 0.721039
84.02089691 8.79940033 26.78050041 -0.284992 -0.185865 0.940337
84.09829712 8.26110077 26.65760040 -0.279587 -0.388399 0.878053
84.91549683 9.18199921 26.68729973 0.115356 -0.089721 0.989264
83.86190033 8.95400238 26.76289940 -0.561390 -0.356361 0.746893
84.40470123 9.49220276 26.69179916 -0.229217 0.756260 0.612805
83.77159882 8.55049896 26.70350075 -0.223535 -0.135672 0.965207
84.07839966 9.20410156 26.80970001 -0.749700 0.466297 -0.469592
84.07740021 8.62899780 26.77470016 -0.152291 0.314185 0.937067
84.28469849 9.41819763 26.70179939 0.269019 -0.061887 0.961144
84.54620361 9.37249756 26.77289963 -0.151335 0.345710 0.926058
84.02059937 8.56179810 26.76799965 -0.913684 -0.232391 0.333430
84.43579865 8.34010315 26.75889969 -0.637189 -0.742612 -0.206195
84.18939972 8.35630035 26.68519974 0.239413 0.605573 0.758922
84.74250031 8.82460022 26.82089996 0.766068 -0.107338 0.633734
84.88970184 9.38249969 26.68099976 0.579243 -0.131848 0.804421
84.14839935 9.32309723 26.70190048 -0.318378 0.237703 0.917678
84.34999847 8.47660065 26.77700043 -0.723907 -0.621180 0.300157
83.86930084 8.75270081 26.70800018 -0.154342 -0.132117 0.979144
83.93230438 9.08730316 26.73100090 -0.879031 -0.329447 -0.344629
83.98040009 8.61920166 26.76309967 -0.784436 -0.549897 0.286834
84.45369720 9.18470001 26.80330086 -0.288727 0.866180 0.407884
84.12300110 8.26149750 26.66270065 0.233326 -0.287062 0.929061
84.73960114 9.06169891 26.77440071 -0.602822 0.743534 -0.289419
84.95629883 9.29650116 26.65029907 0.453937 0.155180 0.877417
84.06069946 8.61599731 26.77770042 -0.390822 -0.528182 -0.753845
83.63380432 8.96389771 26.67930031 -0.214929 -0.419483 0.881952
84.54589844 9.51429749 26.67040062 0.182818 0.428526 0.884841
84.11060333 8.28469849 26.68040085 -0.575397 -0.665985 0.474745
84.74459839 9.18959808 26.70310020 0.677359 0.070769 0.732241
84.28959656 9.25980377 26.76650047 0.114119 0.375356 0.919829
84.24600220 8.47979736 26.82329941 -0.945258 0.074522 0.317701
84.79319763 9.27890015 26.71949959 0.017228 -0.441307 0.897191
84.17250061 8.51689911 26.72240067 -0.833237 0.471908 -0.288129
83.87979889 8.65809631 26.75309944 -0.591614 -0.651948 0.474296
84.38559723 8.15270233 26.67449951 -0.306655 0.361037 0.880690
84.95300293 9.02079773 26.68219948 0.222337 -0.185059 0.957246
83.62650299 8.87300110 26.70120049 -0.052718 -0.162840 0.985243
84.72329712 9.04820251 26.80940056 0.971123 -0.208912 -0.115218
83.67980194 8.80989838 26.71019936 -0.087336 -0.244288 0.965762
84.04440308 8.29000092 26.68889999 -0.596630 -0.116380 0.794033
83.84629822 8.85189819 26.70590019 -0.552073 -0.219907 0.804274
84.59140015 8.21499634 26.75119972 0.654635 -0.734356 0.179373
83.78109741 8.69370270 26.68110085 0.149763 -0.900002 0.409351
84.02439880 8.44599915 26.79420090 0.428980 -0.095792 0.898220
84.16709900 8.53099823 26.78619957 -0.781798 0.420968 0.459977
85.05439758 9.13150024 26.66670036 0.923739 0.169609 0.343423
84.30760193 9.26879883 26.75749969 0.070130 0.005234 0.997524
84.38549805 8.11940002 26.67090034 -0.480221 -0.787433 0.386441
84.36100006 8.15609741 26.68040085 0.285839 0.282937 0.915556
83.98590088 9.12229919 26.71089935 0.849522 -0.063188 -0.523755
84.02790070 9.27410126 26.74060059 -0.495292 0.853085 0.164112
84.42109680 8.36129761 26.66160011 0.058925 -0.722914 0.688421
84.55130005 8.10669708 26.69009972 -0.256431 -0.167821 0.951882
84.17089844 8.37059784 26.76490021 -0.093215 -0.540648 0.836069
83.73300171 8.63899994 26.65530014 -0.235311 -0.355159 0.904705
84.69789886 9.51399994 26.67840004 -0.142636 0.305649 0.941400
84.49250031 8.34970093 26.81119919 -0.642977 0.592613 0.485171
84.78820038 8.88300323 26.78949928 0.637283 -0.195968 0.745297
84.45210266 8.32559967 26.68020058 -0.989785 -0.142037 0.012302
84.03569794 8.72589874 26.78840065 -0.259838 -0.436102 0.861568
84.55100250 9.35009766 26.81819916 0.337000 0.935812 -0.103382
84.39830017 8.45300293 26.78849983 0.155936 -0.670674 0.725176
84.79070282 9.11350250 26.71120071 -0.040841 0.096032 0.994540
83.76699829 8.91120148 26.67869949 -0.238535 0.103323 0.965622
84.02380371 8.99030304 26.81760025 -0.611229 0.744588 0.268306
84.05970001 9.06980133 26.79800034 -0.739225 0.288984 0.608304
84.20429993 9.31549835 26.74830055 -0.564551 -0.227367 0.793465
84.86270142 9.39320374 26.72069931 -0.224576 -0.138899 0.964507
84.13749695 9.29000092 26.70120049 -0.256580 0.290982 0.921681
83.75530243 8.87200165 26.69309998 -0.468768 0.137024 0.872629
84.74860382 9.49770355 26.67690086 0.219387 0.252502 0.942397
84.15209961 9.08480072 26.79640007 0.654287 0.644348 0.395885
84.71040344 8.66280365 26.80229950 -0.155998 -0.539308 0.827533
84.43949890 8.39199829 26.74239922 -0.550506 0.658250 0.513469
83.97370148 8.54409790 26.70890045 -0.385329 -0.231788 0.893194
84.16239929 9.27330017 26.74950027 -0.574226 -0.112507 0.810930
84.81379700 9.40299988 26.68530083 -0.017150 0.015132 0.999738
84.01029968 8.50350189 26.71750069 -0.366895 -0.414135 0.832994
84.70210266 8.53070068 26.81069946 0.901941 0.401657 -0.158662
84.52729797 8.36399841 26.75830078 -0.973997 0.137342 -0.180183
84.82199860 9.42169952 26.71619987 0.628722 -0.362787 0.687818
84.01550293 8.88600159 26.77560043 -0.651042 -0.182292 0.736827
84.28040314 8.17459869 26.67560005 0.195376 -0.208667 0.958273
83.97669983 8.97109985 26.74250031 -0.475318 0.877190 -0.067903
84.30920410 8.33029938 26.66320038 0.216927 0.444327 0.869205
84.15519714 8.23889923 26.71220016 -0.488693 -0.339061 0.803876
83.74309540 8.66970062 26.69510078 -0.249939 -0.244354 0.936922
84.40429688 8.19029999 26.64430046 0.114483 0.105041 0.987856
83.86689758 9.18620300 26.69750023 -0.242461 0.580343 0.777441
84.11050415 9.26730347 26.73119926 -0.184683 0.521017 0.833327
84.17829895 9.31909943 26.74909973 -0.119958 0.169425 0.978215
84.85169983 8.73130035 26.70450020 0.638678 -0.703354 0.312063
84.01270294 8.70259857 26.84250069 -0.901856 0.410704 0.134079
83.92620087 9.05960083 26.72319984 -0.356095 0.517223 0.778252
84.17970276 8.80909729 27.25849915 -0.878109 0.329101 0.347300
84.55049896 8.44300079 27.01560020 -0.748771 -0.659666 -0.064673
83.94909668 8.82119751 27.67989922 -0.651786 0.755382 -0.067625
84.26149750 9.18109894 26.90410042 0.395213 0.459738 -0.795266
84.23079681 9.37069702 26.77790070 0.137340 0.868857 0.475631
83.95899963 9.03980255 26.70159912 -0.300182 0.544775 -0.783014
84.54660034 8.50710297 27.60099983 -0.981044 -0.118803 0.153097
83.80889893 8.79900360 26.74819946 -0.107153 0.111863 0.987930
84.46929932 8.39929962 27.16060066 -0.942318 -0.242152 0.231082
84.06420135 8.96980286 26.98299980 -0.862460 0.430470 0.266192
84.02269745 8.40209961 26.69960022 -0.080552 0.089628 0.992713
84.79479980 9.10900116 26.71120071 -0.024108 0.164165 0.986138
84.02269745 9.04599762 26.85700035 0.216809 0.844495 0.489716
84.58879852 9.27040100 26.86429977 -0.268596 0.449707 0.851833
84.64489746 9.03369904 27.45509911 0.638256 0.020949 -0.769539
84.31829834 9.11260223 27.04920006 0.551135 0.825971 0.118414
84.32060242 9.09040070 27.13640022 0.408246 0.911527 0.049525
83.94400024 8.87180328 26.73030090 -0.307541 -0.490488 0.815377
84.50260162 9.07469940 27.37479973 -0.878157 -0.173878 -0.445654
83.87550354 8.46749878 26.72299957 -0.226693 -0.116548 0.966968
84.29759979 9.10410309 27.04809952 -0.032029 0.999098 -0.027896
84.09439850 8.96910095 27.65530014 0.104125 -0.137636 0.984995
84.70980072 9.00800323 26.83480072 0.891817 0.407229 0.197046
84.24330139 8.25509644 26.65760040 0.257984 -0.255165 0.931845
83.77159882 8.65470123 26.69939995 -0.422541 -0.347143 0.837228
84.00019836 8.60310364 26.82939911 -0.770411 -0.126175 0.624938
84.70050049 8.48120117 26.98819923 0.512336 -0.857575 0.045572
84.70159912 8.85169983 27.62639999 0.786199 0.583111 -0.204627
84.49890137 9.37429810 26.77160072 -0.236241 0.535788 0.810630
84.05539703 8.95220184 27.46220016 -0.947069 0.318246 -0.042177
84.10430145 8.63729858 27.56279945 -0.743398 0.588591 0.317678
84.12789917 8.79750061 27.59429932 -0.742689 0.633699 -0.216423
84.16390228 8.80419922 27.62240028 -0.369195 0.916669 -0.153012
84.09329987 8.98000336 27.38820076 -0.896659 0.423540 0.128904
84.82219696 9.40460205 26.67630005 0.229587 0.235086 0.944470
84.28250122 8.66840363 27.43359947 -0.933087 -0.310102 0.182168
84.85759735 8.90630341 26.73870087 0.712664 0.067942 0.698208
84.70120239 8.88569641 26.87500000 0.186944 -0.914741 0.358190
84.89859772 9.32389832 26.66469955 -0.107084 0.348362 0.931223
84.87840271 9.17120361 26.67110062 -0.140921 -0.084079 0.986444
84.51950073 8.38410187 27.67309952 0.532659 -0.843494 0.069231
84.36740112 8.35440063 26.74830055 0.421356 0.631201 0.651187
83.97959900 9.02429962 26.85190010 -0.441897 -0.044595 0.895957
83.94419861 8.54199982 26.71269989 -0.373244 -0.059772 0.925806
84.54850006 8.52079773 27.56380081 -0.928677 -0.353197 0.113187
84.45069885 8.53279877 27.46010017 -0.571964 -0.817296 -0.069891
84.11569977 8.97460175 27.25629997 -0.673582 0.719404 0.169541
84.25859833 8.81580353 27.69090080 -0.518336 0.194943 -0.832662
84.47689819 9.19309998 27.51040077 -0.393162 0.888694 -0.235897
83.94419861 9.13379669 26.80060005 0.432470 -0.498245 -0.751479
84.25029755 8.34459686 26.72170067 0.329014 0.016388 0.944183
84.02339935 8.73419952 26.84020042 -0.863757 0.377220 0.334109
84.07569885 8.97219849 27.13109970 -0.970749 -0.190068 -0.146697
84.19329834 8.67079926 27.67700005 0.388765 -0.875855 0.285901
84.23200226 8.52400208 26.89069939 -0.477297 -0.850044 0.222739
84.44550323 9.18260193 26.77129936 -0.120456 0.694483 0.709354
84.90170288 9.40820313 26.70079994 0.707560 0.514438 0.484471
84.61260223 9.32420349 26.82789993 0.692567 0.650593 0.311575
84.09200287 8.94480133 27.14450073 -0.986655 0.050090 -0.154929
84.15360260 8.79789734 27.06539917 -0.680660 0.731603 -0.038208
84.44519806 9.43419647 26.71759987 -0.497261 0.862013 -0.098312
84.45040131 8.49960327 26.97240067 -0.868652 -0.493832 0.039671
84.18049622 9.01619720 27.44129944 0.254555 0.963762 0.079786
84.72190094 8.50920105 27.23800087 -0.003116 -0.998116 -0.061279
84.24269867 8.98020172 27.45809937 0.124701 0.992091 0.014346
84.17320251 9.05180359 27.10390091 -0.638507 0.755692 0.145730
84.53980255 8.48789978 27.56209946 -0.636853 -0.761551 0.120245
84.65329742 8.67449951 27.58390045 0.623563 -0.740382 -0.251004
84.34120178 8.32849884 26.68040085 0.161406 0.842569 0.513834
84.45020294 9.23300171 26.77179909 -0.059734 -0.102562 0.992931
84.51609802 9.01629639 27.66349983 0.343615 -0.454458 0.821825
84.91130066 8.96160126 26.71949959 0.088375 0.320525 0.943108
84.44509888 8.55069733 26.97179985 -0.607962 0.783364 -0.129322
83.92320251 9.00489807 26.84480095 -0.649226 0.015292 -0.760442
84.06729889 8.85720062 27.50629997 -0.500119 0.841590 0.203976
84.20400238 8.86029816 27.27009964 -0.341633 -0.118414 -0.932344
84.39350128 8.93710327 27.67650032 0.104652 0.978801 0.176061
84.69049835 8.83940125 27.51339912 0.713805 0.667151 0.213053
84.47119904 8.31629944 27.00239944 -0.951394 0.259716 -0.165518
84.58950043 8.67780304 27.26339912 0.914425 0.305774 -0.265198
84.54759979 8.44770050 27.30260086 -0.948696 -0.157891 0.273948
84.12170410 9.01370239 27.39900017 0.571553 0.415826 -0.707401
84.16809845 9.18630219 26.79150009 -0.145430 0.607206 0.781122
84.68820190 8.73320007 27.07250023 0.408250 -0.792295 0.453432
84.68309784 8.72239685 26.87949944 0.610481 -0.720594 0.328720
83.77069855 8.70639801 26.70190048 -0.389186 -0.479620 0.786447
84.21340179 9.17839813 26.79579926 -0.206057 0.909245 0.361681
84.06700134 9.02480316 26.97150040 -0.920245 0.251237 -0.300049
83.90119934 8.41799927 26.67569923 0.024804 -0.390329 0.920341
84.46510315 9.09249878 27.47439957 -0.778363 -0.566800 -0.269980
84.06929779 8.77770233 27.57710075 0.711923 -0.603907 -0.358416
84.20899963 8.52100372 26.87660027 -0.478268 -0.701570 0.528261
84.48719788 8.44400024 27.65920067 -0.930297 0.366788 -0.003807
84.41539764 8.10790253 26.69120026 0.318880 -0.767554 0.556036
84.62490082 9.18969727 27.23839951 0.232766 0.948761 0.213710
83.93879700 8.77760315 26.76420021 -0.409620 -0.267538 0.872144
84.18070221 8.84300232 27.67819977 0.574597 -0.804435 -0.150738
84.72139740 8.80950165 27.19790077 0.936374 0.094840 0.337949
84.34420013 9.06449890 27.26090050 0.087543 0.890715 0.446052
84.48539734 8.38890076 26.96579933 -0.484903 -0.672824 -0.558729
84.55999756 8.56610107 27.56439972 -0.870912 -0.341324 0.353569
84.10160065 8.78089905 27.19630051 -0.838346 0.394793 -0.375919
84.17780304 8.85669708 27.10700035 -0.537252 -0.790822 0.293191
84.73229980 8.82219696 27.26790047 0.519728 -0.466593 -0.715663
84.11129761 8.63169861 27.11190033 0.072362 -0.902478 -0.424615
84.07540131 8.56700134 26.76329994 0.806104 -0.498866 0.318324
84.67440033 8.72119904 27.17950058 0.580330 -0.210889 0.786602
84.19169617 8.58540344 26.92580032 -0.804439 -0.590871 -0.061223
84.24140167 9.32599640 26.74150085 0.587010 -0.463253 0.663940
84.33580017 9.00330353 27.40950012 0.460914 0.880700 -0.109201
83.92110443 8.92440033 26.78860092 -0.294432 -0.670918 0.680572
84.36489868 8.54630280 26.92639923 -0.029625 -0.712417 0.701131
84.70590210 8.53230286 27.32970047 -0.340412 -0.907279 0.246909
84.53430176 9.38739777 26.77269936 -0.235565 0.971852 0.003551
84.52539825 8.37470245 27.33720016 0.376611 -0.923434 0.073714
84.44719696 9.17639923 27.25440025 0.428336 0.901545 -0.061191
84.04750061 8.81909943 26.80750084 -0.708880 -0.244714 0.661516
84.59200287 9.12969971 27.15679932 0.016065 0.955254 -0.295350
84.03949738 8.90789795 26.90349960 0.244019 -0.625003 0.741502
84.02829742 8.53299713 26.81329918 -0.520782 -0.747495 0.412355
84.55359650 9.29769897 26.85280037 -0.807569 0.049328 0.587707
83.72209930 8.62079620 26.70249939 -0.335845 -0.121013 0.934111
84.68129730 8.90029907 27.44869995 0.756031 0.480515 0.444435
83.72299957 8.91880035 26.68040085 0.157026 -0.177453 0.971521
84.32189941 8.57099915 27.16180038 0.657912 -0.067663 0.750049
84.79129791 8.95449829 26.75779915 0.233708 0.713672 0.660343
84.50309753 8.42240143 26.77650070 -0.603701 -0.790805 -0.100860
84.18800354 8.79419708 27.42169952 -0.322473 0.940658 -0.105707
84.13290405 8.50090027 26.70630074 -0.592307 -0.004104 0.805702
84.72730255 8.90070343 27.17300034 0.708619 0.364947 -0.603881
83.92150116 8.71160126 26.72879982 0.413551 0.265097 0.871033
84.44840240 8.45069885 27.29490089 -0.912543 0.046626 -0.406315
84.05780029 8.84400177 26.92429924 -0.776482 0.390673 0.494420
84.70269775 8.79419708 27.45299911 0.094733 -0.396782 0.913011
84.69680023 8.82769775 27.56959915 0.900325 0.338546 -0.273498
84.15270233 8.95929718 27.35869980 -0.984280 -0.077549 -0.158678
84.11399841 8.93080139 27.42280006 -0.747511 0.250219 -0.615319
84.47910309 8.42310333 27.39439964 -0.999936 -0.010901 -0.002973
84.50720215 9.36859894 26.74769974 0.021142 -0.009061 0.999735
84.04149628 8.78569794 26.81080055 -0.912061 0.144749 0.383656
83.67060089 8.75730133 26.67970085 -0.978704 0.142650 0.147612
84.60079956 9.21060181 26.94899940 0.814042 0.580674 0.012355
84.24909973 8.33719635 26.66580009 0.671526 0.044011 0.739673
83.89240265 8.68099976 26.79590034 -0.125894 -0.596884 0.792389
84.07740021 8.75199890 27.32839966 -0.858055 0.510383 0.057018
84.48629761 9.24150085 27.08589935 -0.441196 0.897054 -0.025325
84.56250000 9.16310120 27.56730080 0.614967 -0.598119 -0.513877
84.72280121 8.36419678 26.76749992 0.964564 -0.130766 0.229165
84.13710022 8.63780212 27.21400070 -0.336335 -0.864642 -0.373194
84.52480316 8.30100250 26.85689926 0.686910 -0.408836 0.600839
84.54850006 8.24520111 26.79159927 -0.873692 -0.196618 -0.444977
84.11769867 8.95290375 27.38559914 -0.810385 -0.398000 -0.429968
84.50849915 8.36370087 26.82519913 -0.613963 -0.764761 0.195422
84.13220215 8.18190002 26.65460014 -0.481244 -0.655632 0.581852
84.57080078 8.45600128 27.51259995 0.245940 -0.955844 -0.160858
84.48480225 8.45320129 27.42309952 -0.474387 -0.595079 -0.648720
84.29859924 8.65059662 27.54290009 -0.579597 0.747503 0.324510
84.68090057 9.06670380 27.57799911 0.953354 -0.271819 -0.131268
84.11530304 8.97889709 27.16230011 -0.890895 0.454052 -0.011914
84.37650299 9.07160187 27.22500038 0.075388 0.997027 0.015927
84.73180389 8.50650024 27.27109909 0.463936 -0.877910 0.118482
84.11329651 8.59130096 27.01930046 -0.093442 -0.994881 -0.038476
84.20870209 9.02230072 27.60250092 -0.003673 0.956221 0.292621
84.02339935 8.92759705 26.92320061 -0.637809 -0.098237 0.763904
84.62699890 9.41510010 26.73900032 -0.637350 0.692772 0.337421
84.11979675 8.77300262 27.65150070 -0.783279 0.449210 -0.429749
84.24749756 8.60790253 27.25300026 -0.412130 -0.793553 -0.447686
84.58779907 8.67120361 27.53949928 0.830533 -0.523040 0.191429
84.42659760 9.02639771 27.38479996 -0.152533 0.635807 -0.756626
84.67099762 8.47730255 27.19099998 0.876016 -0.276875 -0.394888
84.71620178 8.81960297 27.38380051 0.951949 -0.201192 0.230898
84.45349884 8.53769684 27.34600067 -0.534220 -0.179077 -0.826160
84.64559937 9.02700043 27.20420074 0.966511 0.243203 0.081908
84.04609680 8.44170380 26.76840019 0.636181 0.113657 0.763122
83.77449799 9.00180054 26.70779991 0.060314 0.026454 0.997829
84.45289612 9.17859650 26.91139984 0.235609 0.949247 -0.208371
84.27690125 8.59709930 27.59129906 -0.520947 -0.608615 -0.598499
84.68789673 8.75599670 27.10519981 0.362902 -0.868209 0.338402
84.54280090 8.40679932 27.39399910 0.431282 -0.819595 0.377173
84.15450287 9.00319672 27.61230087 -0.287250 0.929671 -0.230649
84.55860138 8.23310089 26.82379913 0.068042 -0.924566 0.374896
84.62170410 9.11679840 27.66309929 -0.003807 -0.366788 -0.930297
84.14759827 8.78880310 27.68350029 -0.274458 0.913408 0.300597
84.39600372 9.22499847 26.80450058 -0.287544 0.217411 0.932765
84.72589874 8.95110321 26.78440094 -0.311891 0.548608 0.775728
84.07759857 8.90219879 27.12380028 -0.880439 -0.471124 0.053568
84.71910095 9.18309784 26.72599983 0.743040 -0.349570 0.570694
83.94229889 9.13480377 26.78549957 0.753149 -0.646193 0.123297
84.50779724 8.37799835 27.35700035 0.090804 -0.973963 0.207729
84.28520203 9.41739655 26.70680046 0.333754 -0.213430 0.918181
84.70310211 8.82710266 27.41659927 0.976675 -0.138810 -0.163821
84.47000122 8.27909851 27.02379990 -0.646052 0.416861 -0.639409
84.14980316 9.04399872 27.43289948 0.124371 0.984102 0.126786
84.09140015 8.32599640 26.69090080 -0.496487 -0.427667 0.755381
84.19200134 9.00749969 27.40150070 -0.121529 -0.297813 0.946857
84.01290131 8.92369843 26.87520027 -0.764253 0.350619 0.541279
84.40560150 9.18949890 26.79789925 0.340123 0.772128 0.536782
84.62180328 9.25769806 26.90460014 0.952707 0.212163 -0.217569
84.24089813 9.27850342 26.76199913 0.783014 -0.544775 0.300182
84.66349792 9.11229706 26.90839958 0.632033 0.690827 -0.351130
84.07479858 9.19120026 26.81380081 -0.927294 0.348596 -0.136407
84.20980072 8.84200287 27.55730057 -0.055806 0.756961 -0.651073
84.70529938 8.80860138 26.94280052 0.983781 -0.107431 -0.143644
84.61479950 9.27610016 26.84639931 0.649259 0.406825 0.642617
84.50299835 8.28119659 26.77599907 0.211876 -0.473341 0.855019
84.32910156 8.71250153 27.52639961 -0.900074 -0.047230 -0.433169
84.45439911 8.38549805 27.19659996 -0.957266 -0.284524 0.051847
84.23290253 9.10330200 27.13269997 0.136392 0.983712 0.117080
84.17029572 8.82029724 27.62829971 -0.778808 0.374022 -0.503553
84.61039734 9.16210175 26.95050049 0.904666 0.244070 0.349298
84.04309845 8.48739624 26.69689941 -0.029478 -0.649930 0.759422
84.40689850 8.40409851 26.88409996 -0.854037 -0.509551 0.104781
84.38809967 9.41590118 26.73950005 -0.737844 0.142760 0.659702
84.53659821 9.20919800 27.22859955 0.213137 0.963693 0.160834
84.39980316 9.13719940 26.96839905 -0.564745 -0.248738 0.786888
83.84809875 8.48619843 26.68169975 -0.025241 -0.231980 0.972393
84.17130280 8.67729950 27.70079994 0.163553 -0.956054 0.243335
84.18499756 8.58869934 27.44779968 -0.814553 -0.508118 0.279856
84.72869873 8.75129700 26.86450005 0.733790 -0.398906 0.549932
83.98069763 8.96289825 26.82060051 -0.786678 0.520714 -0.331655
84.22519684 9.22689819 26.75239944 0.055206 0.055206 0.996948
84.58599854 9.34729767 26.80139923 -0.377046 0.924756 0.051596
84.10659790 8.53659821 26.80879974 -0.082930 0.319873 0.943824
84.36959839 8.44960022 26.83839989 -0.133216 -0.880945 0.454081
84.43520355 8.41739655 26.79910088 0.199511 -0.697515 0.688236
84.84539795 9.23789978 26.66720009 0.263265 0.151010 0.952831
83.94239807 9.12359619 26.74270058 0.695945 -0.718083 -0.004151
84.10890198 8.80120087 27.61809921 -0.295360 0.906652 0.301238
83.75090027 8.58110046 26.69809914 -0.558042 0.075642 0.826358
84.09940338 8.68379974 27.14119911 -0.713786 0.676945 -0.179598
84.77709961 9.33399963 26.73380089 0.549362 0.078480 0.831891
84.47299957 8.54239655 27.13610077 -0.686750 0.670742 0.280143
84.23169708 8.38310242 26.75720024 0.449334 -0.851128 0.271441
84.57970428 9.13600159 27.39459991 0.522217 0.782522 -0.339040
84.58280182 8.28260040 27.12949944 0.423093 -0.799533 0.426310
84.45829773 8.40709686 26.87439919 0.247207 -0.290075 -0.924524
83.96960449 8.87619781 26.73139954 -0.157545 -0.052515 0.986114
84.73809814 9.06960297 26.73130035 0.673387 0.576473 0.462849
84.30640411 8.69979858 27.65139961 -0.881503 -0.303914 -0.361371
84.04489899 8.98519897 27.00880051 -0.742843 0.292345 -0.602262
84.40889740 8.58339691 27.30229950 -0.350983 -0.933747 -0.070197
84.21160126 8.55809784 27.44129944 -0.204691 -0.937123 -0.282669
84.26709747 8.64409637 27.41379929 -0.958464 0.107941 0.264000
