86.95169830 -10.76719666 27.43420029 -0.943599 -0.257596 -0.208005
86.42910004 -10.73609924 27.43549919 0.801335 0.268157 -0.534746
86.39939880 -10.72660065 27.43619919 0.000000 0.000000 0.000000
86.42919922 -10.70279694 27.43820000 0.928068 0.076115 0.364550
86.95199585 -10.69699860 27.43540001 -0.956250 0.166246 0.240725
86.91120148 -10.67199707 27.43390083 -0.241997 -0.941712 0.233700
86.95210266 -10.67669678 27.43919945 -0.865484 0.119130 0.486566
86.94830322 -10.65200043 27.43090057 -0.827627 -0.561264 -0.004077
86.91600037 -10.61440277 27.43530083 -0.928617 -0.318905 0.189657
86.90019989 -10.60079956 27.43510056 0.242046 -0.873469 -0.422452
86.46859741 -10.58480072 27.43040085 0.699474 -0.095316 -0.708273
86.94149780 -10.58750153 27.43120003 0.000000 0.000000 0.000000
86.47170258 -10.55729675 27.43090057 0.439626 -0.126624 0.889211
86.84059906 -10.55930328 27.43630028 -0.972189 0.176646 0.153771
86.44960022 -10.53929901 27.43160057 0.547936 0.213342 -0.808858
86.47060394 -10.52950287 27.43059921 0.606344 -0.629859 -0.485411
86.49340057 -10.48169708 27.43729973 0.861549 0.246806 -0.443645
86.80920410 -10.48210144 27.43129921 -0.019247 -0.988410 -0.150583
86.84370422 -10.48609924 27.43959999 -0.828093 -0.478766 -0.291626
86.78279877 -10.47049713 27.43199921 -0.246413 -0.126466 -0.960878
86.75620270 -10.46959686 27.43180084 -0.793784 -0.556740 -0.244841
86.68769836 -10.45159912 27.43219948 0.969727 -0.200589 0.139262
86.60600281 -10.44429779 27.43959999 0.631998 -0.763477 -0.132973
86.70919800 -10.43314743 27.43064880 0.029468 -0.979515 0.199203
86.79699707 -10.43890381 27.43180084 -0.386977 -0.853214 -0.349678
86.60810089 -10.98719788 27.44519997 -0.723865 0.070797 -0.686299
86.49610138 -10.96959686 27.44440079 0.241504 0.948277 -0.206028
86.54080200 -10.96720123 27.44560051 0.000000 0.000000 0.000000
86.64620209 -10.96880341 27.44729996 -0.747086 0.473320 0.466723
86.68389893 -10.96374893 27.44749832 -0.837225 0.546843 -0.004071
86.71009827 -10.96849823 27.44169998 -0.052769 0.970708 0.234394
86.46669769 -10.94210052 27.44890022 0.000000 0.000000 0.000000
86.72850037 -10.93419647 27.44149971 -0.861722 -0.147266 0.485539
86.77480316 -10.92120361 27.44759941 -0.219459 0.846051 0.485836
86.80190277 -10.92649841 27.44389915 0.311912 0.432953 -0.845732
86.84560394 -10.90579987 27.44890022 -0.315696 -0.947087 -0.057985
86.74720001 -10.89849854 27.44720078 -0.552103 0.286334 0.783068
86.39720154 -10.88320160 27.44779968 0.241014 0.202888 -0.949078
86.38649750 -10.86270142 27.44949913 0.241014 0.202888 -0.949078
86.44149780 -10.84670258 27.44070053 0.868135 0.272147 -0.415063
86.89479828 -10.83409882 27.44549942 -0.734925 0.296212 -0.610036
86.44010162 -10.82029724 27.44739914 0.463515 0.201204 -0.862943
86.91249847 -10.82279968 27.44449997 -0.945348 0.039656 -0.323644
86.46320343 -10.81379700 27.44949913 0.624726 0.628076 0.463938
86.94809723 -10.81909943 27.44470024 -0.637794 -0.734952 -0.230358
86.96739960 -10.78070068 27.44540024 -0.544425 -0.811270 -0.213169
86.93789673 -10.74369812 27.44779968 -0.969932 -0.243373 -0.001187
86.48600006 -10.72109985 27.44669914 0.000000 0.000000 0.000000
86.93389893 -10.68340302 27.44720078 -0.700155 -0.621816 -0.350894
86.42610168 -10.66439819 27.44669914 0.977952 0.071855 -0.196078
86.42070007 -10.64289856 27.44949913 -0.070757 -0.735007 -0.674358
86.91649628 -10.64119720 27.44759941 -0.950007 0.018775 0.311662
86.90209961 -10.62419891 27.44739914 -0.626117 -0.772748 0.104108
86.44069672 -10.61470032 27.44930077 -0.381845 -0.725996 -0.571948
86.87779999 -10.61969757 27.44120026 -0.424011 -0.897326 0.122555
86.47000122 -10.60679626 27.44239998 0.635457 -0.318537 -0.703369
86.86779785 -10.59269714 27.44779968 -0.902725 -0.366048 -0.226046
86.87429810 -10.55079651 27.44339943 -0.499185 -0.852590 -0.154615
86.84929657 -10.53579712 27.44309998 -0.980672 0.048855 0.189462
86.81210327 -10.52390289 27.44470024 -0.476187 -0.149992 0.866457
86.48739624 -10.51860046 27.44459915 0.753524 -0.646935 -0.116952
86.85399628 -10.51149750 27.44090080 -0.889058 -0.226333 -0.397931
86.51599884 -10.48729706 27.44650078 0.348565 -0.867574 -0.354707
86.76309967 -10.48989868 27.44510078 -0.508460 0.795366 0.329941
86.54129791 -10.47119904 27.44249916 0.727572 -0.685996 -0.006929
86.72080231 -10.47180176 27.44359970 -0.042973 -0.355504 -0.933686
86.57389832 -10.46099854 27.44960022 0.320626 -0.934355 0.155497
86.81610107 -10.46330261 27.44309998 -0.730495 -0.289321 -0.618603
86.77300262 -10.45520020 27.44379997 -0.487249 0.872705 -0.031217
86.72329712 -10.44409943 27.44729996 0.929523 -0.183109 -0.320091
86.65309906 -10.43070221 27.44980049 0.333454 -0.910082 0.246086
86.58879852 -10.41359711 27.44919968 0.267763 -0.908638 0.320438
86.60970306 -10.40740204 27.44919968 -0.394132 -0.890118 -0.228803
86.67230225 -11.01730347 27.45499992 -0.852314 -0.519226 -0.062979
86.57299805 -10.99169922 27.45210075 0.000000 0.000000 0.000000
86.66179657 -10.99320221 27.45269966 -0.844175 -0.439966 0.306266
86.74629974 -10.92859650 27.45750046 0.107556 0.749943 -0.652701
86.43939972 -10.91790009 27.45350075 0.405636 -0.673853 -0.617561
86.46130371 -10.90750122 27.45649910 0.590138 -0.603665 -0.536028
86.80139923 -10.90540314 27.45260048 0.153215 -0.288803 -0.945049
86.83090210 -10.89019775 27.45070076 0.088994 -0.742589 -0.663808
86.44180298 -10.88439941 27.45310020 0.829628 0.558113 0.015084
86.87609863 -10.88860321 27.45590019 -0.960120 0.010980 0.279374
86.41469574 -10.86239624 27.45669937 0.367088 0.243251 -0.897817
86.89070129 -10.86499786 27.45879936 0.106645 0.932807 -0.344234
86.43240356 -10.80259705 27.45319939 0.754668 0.574449 0.316993
86.92649841 -10.80200195 27.45039940 -0.980131 -0.165604 0.109176
86.44079590 -10.78420258 27.45310020 0.767741 -0.277020 0.577784
86.92330170 -10.78019714 27.45709991 -0.726913 0.641765 0.244407
86.43319702 -10.73320007 27.45649910 0.936768 0.216392 -0.275027
86.95059967 -10.73190308 27.45980072 -0.958071 -0.168292 0.231898
86.93350220 -10.71450043 27.45050049 -0.990610 0.132157 -0.035016
86.95719910 -10.69570160 27.45940018 -0.913040 0.407397 0.019649
86.43270111 -10.68969727 27.45599937 0.990377 -0.044447 -0.131063
86.92720032 -10.65799713 27.45490074 -0.630903 0.395763 -0.667333
86.39479828 -10.64499664 27.45630074 0.000000 0.000000 0.000000
86.45099640 -10.64019775 27.45159912 0.176125 -0.727472 0.663148
86.45940399 -10.62169647 27.45249939 -0.051244 -0.928969 -0.366594
86.48310089 -10.62920380 27.45269966 -0.798334 -0.594751 0.094520
86.91749573 -10.61309814 27.45929909 -0.735535 -0.671194 -0.092125
86.41870117 -10.60260010 27.45109940 -0.401683 -0.845565 -0.351668
86.84549713 -10.59500122 27.45269966 0.226668 -0.173646 -0.958368
86.46244812 -10.58655167 27.45420074 0.926499 -0.363837 0.096031
86.85389709 -10.57649994 27.45960045 -0.912378 -0.350249 0.211879
86.89830017 -10.57550049 27.45779991 0.079153 -0.884570 -0.459643
86.83480072 -10.50930023 27.45969963 -0.795334 0.596134 -0.109853
86.53510284 -10.49890137 27.45969963 -0.098514 -0.858072 -0.503992
86.81950378 -10.49649811 27.45350075 -0.143911 -0.971721 0.187212
86.67990112 -10.46340179 27.45229912 -0.156445 -0.953376 0.258067
86.59790039 -10.45390320 27.45770073 0.343844 -0.872600 -0.346901
86.74440002 -10.45310211 27.45560074 -0.156037 0.743828 -0.649902
86.64019775 -10.44950104 27.45789909 -0.208671 -0.601281 -0.771309
86.78990173 -10.44069672 27.45569992 -0.582348 0.794111 -0.173948
86.62969971 -10.43129730 27.45660019 -0.420229 -0.823015 0.382171
86.68460083 -10.43180084 27.45899963 -0.248563 -0.789461 0.561221
86.75180054 -10.42929840 27.45940018 0.107625 -0.114721 -0.987550
86.72350311 -10.41660309 27.45709991 -0.483555 -0.839697 0.247150
86.60040283 -11.00489807 27.46240044 0.031768 0.548349 0.835646
86.68759918 -10.98729706 27.46279907 -0.487638 0.779249 0.393675
86.66469574 -10.97920227 27.46949959 -0.342700 0.897548 0.277424
86.51449585 -10.96119690 27.46640015 -0.198747 0.820780 -0.535555
86.71115112 -10.95444870 27.46509933 -0.255106 -0.383405 0.887649
86.68289948 -10.94629669 27.46829987 -0.658797 -0.706421 -0.258757
86.76449585 -10.93109894 27.46969986 -0.389100 0.876610 0.283119
86.80830383 -10.91979980 27.46579933 0.449499 0.834785 -0.317939
86.88770294 -10.91419983 27.46629906 0.000000 0.000000 0.000000
86.78500366 -10.90380096 27.46750069 0.714153 0.439096 -0.545142
86.47949982 -10.89330292 27.46850014 0.767212 -0.113825 -0.631213
86.85960388 -10.89420319 27.46789932 -0.841992 0.399828 0.362198
86.91220093 -10.88559723 27.46310043 -0.765280 -0.626958 -0.145839
86.46409607 -10.87470245 27.46419907 0.400415 0.121380 -0.908259
86.43129730 -10.86229706 27.46879959 0.509444 0.543070 -0.667489
86.91239929 -10.86180115 27.46489906 0.152293 0.752419 -0.640838
86.92410278 -10.84480286 27.46080017 -0.926493 0.193196 0.322933
86.40959930 -10.83950043 27.46450043 0.741158 0.646019 -0.182604
86.95050049 -10.77459717 27.46220016 -0.330131 0.918936 -0.215800
86.43610382 -10.76570129 27.46089935 0.665896 0.038172 0.745068
86.40989685 -10.75620270 27.46759987 0.612613 0.388043 0.688570
86.47000122 -10.74990082 27.46890068 0.000000 0.000000 0.000000
86.42150116 -10.70739746 27.46520042 0.994482 -0.092226 -0.050002
86.43029785 -10.66729736 27.46680069 -0.747044 -0.338682 -0.572031
86.91110229 -10.66809845 27.46489906 -0.910622 -0.412481 0.025039
86.93399811 -10.63330078 27.46669960 -0.915519 -0.324396 0.237891
86.46959686 -10.60790253 27.46739960 0.675934 -0.262421 0.688657
86.86990356 -10.60530090 27.46800041 -0.745462 -0.633875 0.206126
86.87850189 -10.57980347 27.46269989 0.357708 -0.710516 -0.605980
86.48789978 -10.56790161 27.46109962 0.000000 0.000000 0.000000
86.44850159 -10.55619812 27.46279907 0.357239 -0.531818 -0.767822
86.85700226 -10.54599762 27.46929932 -0.988823 0.144845 -0.035356
86.42549896 -10.53880310 27.46439934 -0.022174 0.062297 -0.997811
86.44960022 -10.52819824 27.46450043 -0.022174 0.062297 -0.997811
86.49230194 -10.52459717 27.46870041 0.887320 -0.459239 -0.041995
86.75790405 -10.51899719 27.46929932 0.000000 0.000000 0.000000
86.49610138 -10.50450134 27.46450043 0.831128 -0.555464 0.026188
86.56459808 -10.49289703 27.46179962 0.000000 0.000000 0.000000
86.71119690 -10.48470306 27.46769905 -0.870461 -0.194260 -0.452284
86.80169678 -10.48519897 27.46730042 -0.340626 -0.766813 0.544033
86.83789825 -10.48819733 27.46649933 -0.751050 0.650318 -0.114065
86.77749634 -10.47329712 27.46599960 -0.778339 0.094919 0.620627
86.70919800 -10.46119690 27.46139908 0.302931 -0.938949 0.163117
86.55660248 -10.45989990 27.46949959 0.548787 -0.834990 0.040291
86.77269745 -10.44909668 27.46570015 0.246168 0.527945 -0.812819
86.70559692 -10.41829681 27.46899986 0.332894 -0.548391 -0.767104
86.76660156 -10.40799713 27.46330070 0.000000 0.000000 0.000000
86.69830322 -10.39929962 27.46170044 -0.457693 -0.467536 -0.756259
86.58270264 -11.02549744 27.47150040 0.658700 -0.251159 0.709248
86.68060303 -11.02469635 27.47710037 -0.184096 0.911917 0.366765
86.53569794 -10.99259949 27.47780037 0.726997 -0.579964 -0.367583
86.63559723 -10.99119949 27.47494888 0.234994 0.459376 0.856593
86.55329895 -10.97180176 27.47970009 0.685432 -0.616063 0.388136
86.70349884 -10.97394943 27.47769928 -0.136733 0.719726 0.680660
86.72509766 -10.97160339 27.47080040 -0.875849 0.368859 0.311177
86.49189758 -10.96479797 27.47229958 -0.188891 0.820542 -0.539473
86.50139618 -10.94439697 27.47710037 0.929090 0.139019 -0.342731
86.44840240 -10.93199921 27.47470093 0.885909 0.090970 -0.454851
86.67029572 -10.93399811 27.47809982 -0.777424 -0.540190 -0.322190
86.71559906 -10.93250275 27.47240067 -0.895208 0.445632 -0.003944
86.82559967 -10.92279816 27.47900009 0.589695 0.456053 -0.666539
86.46879578 -10.91179657 27.47859955 0.324857 -0.483325 -0.812936
86.73439789 -10.90619659 27.47920036 -0.362311 0.654127 -0.663964
86.79430389 -10.88110352 27.47929955 0.504525 -0.187139 -0.842872
86.86319733 -10.87390137 27.47669983 -0.754668 0.574449 -0.316993
86.88330078 -10.85520172 27.47459984 -0.403173 0.874296 -0.270292
86.91290283 -10.84580231 27.47870064 0.265379 0.688080 -0.675367
86.89980316 -10.82340240 27.47139931 -0.862632 -0.503777 -0.045547
86.93319702 -10.81629944 27.47450066 -0.969338 0.243851 -0.030330
86.41699982 -10.78959656 27.47100067 0.867276 -0.245854 0.432884
86.94460297 -10.78769684 27.47629929 -0.751265 0.337665 0.567084
86.94169617 -10.75520325 27.46999931 -0.991139 -0.130737 0.023466
86.42240143 -10.73860168 27.47450066 0.996016 -0.083453 0.031430
86.93060303 -10.72660065 27.47859955 -0.959907 -0.257789 0.110111
86.94319916 -10.70919800 27.47050095 -0.986793 0.091216 -0.133863
86.40119934 -10.68109894 27.47080040 0.370474 -0.873586 -0.315589
86.93060303 -10.68759918 27.47120094 -0.633196 -0.759534 -0.148899
86.95470428 -10.68990326 27.47839928 -0.392993 0.520185 -0.758264
86.88909912 -10.63919830 27.47640038 0.167179 0.080583 0.982628
86.44035339 -10.61700058 27.47184944 -0.346066 -0.742499 0.573527
86.90149689 -10.61949921 27.47430038 -0.914319 0.289268 -0.283453
86.47920227 -10.53749847 27.47979927 0.753737 -0.627344 -0.195756
86.53260040 -10.53559875 27.47909927 -0.851056 -0.245116 -0.464351
86.76679993 -10.49189758 27.47410011 -0.984713 0.048006 0.167436
86.51539612 -10.47899628 27.47439957 0.463364 -0.513188 0.722449
86.53749847 -10.47080231 27.47139931 -0.228424 -0.823245 0.519702
86.74410248 -10.47309875 27.47579956 -0.796645 -0.603434 0.035002
86.61409760 -10.45520020 27.47480011 0.152761 -0.691204 0.706329
86.66220093 -10.45069885 27.47200012 0.559075 -0.488561 -0.669883
86.51689911 -10.44960022 27.47410011 0.244748 -0.705821 0.664767
86.69540405 -10.44499969 27.47220039 -0.436964 -0.479515 0.761005
86.72859955 -10.44869995 27.47340012 0.201061 -0.832966 -0.515502
86.55670166 -10.43949890 27.47719955 0.521208 0.242818 -0.818157
86.61900330 -10.43309784 27.47459984 0.481233 -0.415981 0.771605
86.67340088 -10.43280029 27.47690010 -0.202313 -0.530882 -0.822942
86.73339844 -10.42659760 27.47520065 -0.372280 -0.837236 -0.400554
86.66739655 -10.41419983 27.47069931 -0.386943 -0.778742 0.493797
86.60430145 -11.05190277 27.48290062 0.169627 -0.553915 0.815110
86.63279724 -11.04450226 27.48200035 0.000000 0.000000 0.000000
86.68499756 -10.98500061 27.48670006 -0.901082 0.291483 0.321075
86.63210297 -10.96900177 27.48119926 0.000000 0.000000 0.000000
86.68470001 -10.96029663 27.48749924 -0.821701 -0.078598 0.564473
86.46730042 -10.95780182 27.47999954 0.591142 0.764544 0.256950
86.74680328 -10.94799805 27.48970032 -0.508309 0.711632 -0.484976
86.50080109 -10.91750336 27.48180008 0.128447 0.173342 -0.976450
86.81710052 -10.90200043 27.48570061 0.688660 0.398003 -0.606087
86.86360168 -10.90789795 27.48909950 0.669876 0.740988 0.046934
86.91770172 -10.89250183 27.48320007 -0.343782 -0.929991 -0.130117
86.93280029 -10.86029816 27.48500061 -0.951775 0.111896 0.285664
86.44110107 -10.83679962 27.48959923 0.713180 -0.695679 -0.086048
86.43569946 -10.81900024 27.48139954 0.924510 0.040652 -0.378984
86.94920349 -10.81900024 27.48769951 -0.718343 0.439633 0.539172
86.48079681 -10.79489899 27.48839951 0.000000 0.000000 0.000000
86.98180389 -10.78279877 27.48550034 -0.360795 0.155830 -0.919535
86.41390228 -10.77359772 27.48579979 0.881244 0.221426 -0.417588
86.43569946 -10.76679993 27.48489952 0.914445 0.011707 -0.404541
86.40470123 -10.74620056 27.48850060 0.997237 -0.031063 0.067482
86.95410156 -10.74479675 27.48189926 -0.950522 -0.193901 0.242715
86.44609833 -10.73290253 27.48559952 0.351550 -0.935305 0.040214
86.43620300 -10.71549988 27.48329926 -0.440670 -0.816115 0.373854
86.41770172 -10.68099976 27.48990059 0.454252 -0.710496 -0.537448
86.92880249 -10.67539978 27.48810005 0.367924 0.301304 -0.879686
86.90820313 -10.64119720 27.48460007 -0.984794 -0.052820 -0.165502
86.88040161 -10.61620331 27.48609924 -0.414657 -0.566643 0.712021
86.43969727 -10.59819794 27.48909950 0.969711 -0.240899 -0.040354
86.88559723 -10.59269714 27.48690033 0.574928 -0.097028 -0.812430
86.46240234 -10.58370209 27.48609924 0.975205 0.139315 -0.171947
86.90620422 -10.58789825 27.48299980 -0.951904 -0.218004 0.215296
86.84349823 -10.57679749 27.48850060 -0.979733 0.041564 0.195947
86.46389771 -10.55069733 27.48679924 0.713406 -0.453985 -0.533807
86.53990173 -10.55449677 27.48629951 -0.763787 -0.466123 -0.446496
86.85770416 -10.55829620 27.48740005 -0.929157 0.334719 0.156943
86.82350159 -10.53620148 27.48690033 -0.241831 0.058288 0.968566
86.87460327 -10.53450012 27.48530006 -0.671244 -0.359419 0.648267
86.52500153 -10.51059723 27.48880005 -0.875498 -0.020173 -0.482801
86.83550262 -10.51789856 27.48880005 -0.837544 0.051735 0.543914
86.50650024 -10.49279785 27.48950005 0.244836 -0.677642 -0.693438
86.82769775 -10.49440002 27.48349953 -0.826601 -0.494720 0.268296
86.53659821 -10.48429871 27.48660088 0.809053 -0.582000 0.081911
86.65299988 -10.47899628 27.48030090 -0.954089 0.276909 -0.114176
86.79239655 -10.47059631 27.48909950 -0.784965 0.304114 -0.539763
86.81890106 -10.46569824 27.48320007 -0.258932 -0.510111 0.820208
86.58119965 -10.45939636 27.48660088 0.578215 -0.438244 -0.688193
86.57499695 -10.43840027 27.48730087 0.613240 -0.226259 -0.756798
86.76650238 -10.43740082 27.48360062 -0.815290 0.452939 0.360762
86.59570313 -10.43000031 27.48839951 0.061918 -0.721412 -0.689733
86.63539886 -10.41780090 27.48349953 0.304575 -0.717120 0.626876
86.68979645 -11.03160095 27.49920082 -0.826024 0.437493 0.355364
86.56159973 -11.02210236 27.49230003 0.269609 -0.559715 0.783601
86.60579681 -11.02819824 27.49869919 -0.641287 -0.621195 0.450408
86.53250122 -11.00620270 27.49300003 0.784992 0.598161 0.161217
86.56579590 -11.00270081 27.49909973 0.251365 -0.548008 0.797812
86.65599823 -11.00460052 27.49169922 0.348131 0.891992 0.288366
86.72250366 -10.97879791 27.49290085 -0.627200 0.769543 0.120102
86.72959900 -10.95639801 27.49670029 -0.843584 0.500737 -0.193979
86.77590179 -10.93049622 27.49769974 0.055903 -0.336716 -0.939945
86.79579926 -10.90959930 27.49160004 -0.454756 -0.704621 -0.544707
86.74919891 -10.89420319 27.49320030 0.608270 0.428289 -0.668264
86.93589783 -10.89859772 27.49040031 -0.287995 -0.954386 -0.078779
86.42929840 -10.88700104 27.49410057 0.419371 0.814824 -0.400237
86.88839722 -10.88369751 27.49799919 -0.882013 -0.082210 -0.463998
86.87740326 -10.86460114 27.49869919 -0.780180 0.540861 0.314306
86.41429901 -10.84680176 27.49360085 0.229728 -0.950175 -0.210697
86.92859650 -10.83319855 27.49469948 -0.662182 0.484483 -0.571656
86.45619965 -10.80460358 27.49740028 -0.178359 -0.014959 -0.983852
86.93029785 -10.80249786 27.49340057 -0.645247 0.226540 -0.729614
86.43009949 -10.79519653 27.49110031 0.508246 0.311914 -0.802743
86.95569611 -10.79579926 27.49349976 -0.256986 0.442503 0.859156
86.95870209 -10.77249908 27.49629974 -0.928052 -0.316862 -0.195750
86.47070313 -10.73249817 27.49670029 0.227425 -0.694823 0.682275
86.94619751 -10.72409821 27.49670029 -0.909183 -0.413752 0.046865
86.46199799 -10.70950317 27.49939919 0.497119 -0.107446 -0.861004
86.93499756 -10.69989777 27.49040031 -0.923181 -0.142989 -0.356778
86.46189880 -10.67769623 27.49309921 -0.214032 0.166761 -0.962487
86.95529938 -10.66680145 27.49209976 -0.036447 0.297862 -0.953913
86.91629791 -10.65959930 27.49379921 -0.094001 0.811301 -0.577022
86.43409729 -10.64910126 27.49559975 0.836822 0.152553 -0.525791
86.94049835 -10.64540100 27.49279976 0.034054 -0.486286 -0.873136
86.41690063 -10.63870239 27.49340057 0.824476 -0.245031 -0.510097
86.90750122 -10.61409760 27.49930000 -0.918934 -0.027450 0.393455
86.85939789 -10.59259796 27.49679947 -0.484970 -0.729937 0.481659
86.44750214 -10.56590271 27.49189949 0.477950 -0.768309 -0.425751
86.87940216 -10.55139923 27.49749947 -0.339930 -0.453767 -0.823737
86.52559662 -10.54329681 27.49909973 -0.800729 -0.490666 -0.343626
86.85320282 -10.53260040 27.49410057 -0.481911 -0.572584 0.663257
86.49030304 -10.51950073 27.49959946 0.910324 -0.392936 -0.130046
86.48400116 -10.48450089 27.49324989 -0.333236 -0.938638 0.088952
86.55930328 -10.46970367 27.49460030 0.313070 -0.891275 -0.328049
86.71095276 -10.46195221 27.49349976 0.131041 -0.980967 -0.143287
86.75260162 -10.46040344 27.49069977 -0.874990 0.466949 0.127872
86.50579834 -10.45629883 27.49909973 0.030383 -0.968613 -0.246711
86.52770233 -10.45539856 27.49819946 -0.698934 -0.713228 -0.052885
86.68470001 -10.44309998 27.49209976 -0.095062 -0.954522 0.282580
86.74220276 -10.43849945 27.49539948 -0.365704 -0.870651 -0.328980
86.71140289 -10.42729950 27.49410057 0.050072 -0.986296 0.157202
86.77600098 -10.41329956 27.49939919 -0.824530 -0.043396 0.564152
86.66159821 -11.03769684 27.50009918 0.648789 0.561161 0.513976
86.53849792 -11.02490234 27.50020027 -0.109711 -0.474463 0.873412
86.68759918 -11.00209808 27.50589943 -0.983762 -0.005713 0.179385
86.47340393 -10.96189880 27.50410080 0.916647 0.108895 -0.384578
86.51239777 -10.95610046 27.50130081 0.000000 0.000000 0.000000
86.54949951 -10.95839691 27.50760078 -0.791586 -0.585743 0.174058
86.79389954 -10.94740295 27.50200081 0.382560 0.176235 -0.906967
86.71949768 -10.93309784 27.50139999 0.709606 0.635588 -0.304117
86.75360107 -10.93630219 27.50670052 -0.225462 0.431513 -0.873478
86.76709747 -10.91110229 27.50550079 0.051898 -0.548438 -0.834579
86.87899780 -10.90979767 27.50519943 -0.912839 0.238698 0.331284
86.44699860 -10.89440155 27.50930023 0.804726 0.561331 0.193195
86.82649994 -10.88150024 27.50650024 0.162822 0.664983 -0.728894
86.84739685 -10.88534927 27.50769997 0.410525 0.720480 -0.558908
86.74199677 -10.87729645 27.50499916 0.000000 0.000000 0.000000
86.92649841 -10.86519623 27.50699997 -0.653984 -0.035312 -0.755684
86.38439941 -10.85379791 27.50440025 0.000000 0.000000 0.000000
86.90550232 -10.83599854 27.50060081 -0.887602 -0.444511 0.120714
86.40209961 -10.81279755 27.50709915 0.694746 -0.348190 -0.629358
86.90940094 -10.81800079 27.50939941 -0.531052 -0.415964 -0.738212
86.41159821 -10.78669739 27.50189972 0.796499 -0.534680 -0.282323
86.44239807 -10.78119659 27.50609970 0.819667 0.541916 0.185670
86.92610168 -10.78839874 27.50819969 -0.872183 -0.453063 0.184472
86.43140411 -10.76200104 27.50979996 0.863192 -0.352355 0.361587
86.93939972 -10.74790192 27.50589943 -0.750273 -0.268068 -0.604343
86.42669678 -10.73789978 27.50149918 0.490252 -0.830491 -0.264458
86.96360016 -10.73000336 27.50790024 -0.696602 0.621206 -0.358955
86.40339661 -10.72550201 27.50219917 0.242062 0.331929 -0.911718
86.41790009 -10.70549774 27.50709915 0.811957 -0.362111 0.457823
86.43730164 -10.68009949 27.50200081 0.033348 0.003032 -0.999439
86.48110199 -10.66880035 27.50410080 0.000000 0.000000 0.000000
86.44619751 -10.61039734 27.50629997 0.567309 -0.721880 -0.396294
86.47419739 -10.59850311 27.50139999 0.828241 -0.556408 0.066542
86.47229767 -10.57119751 27.50810051 0.939932 -0.145547 -0.308777
86.89209747 -10.57879639 27.50679970 -0.640922 -0.767143 -0.026647
86.48519897 -10.54869843 27.50989914 0.711779 -0.687702 -0.142958
86.87249756 -10.53320313 27.50519943 -0.767309 -0.344077 -0.541155
86.51190186 -10.51629639 27.50880051 -0.683379 -0.189742 -0.704976
86.85330200 -10.50859833 27.50989914 -0.468520 -0.623014 0.626373
86.52449799 -10.49880219 27.50670052 0.799535 -0.585930 -0.132020
86.77320099 -10.49449921 27.50219917 -0.598491 0.733998 0.321023
86.80069733 -10.49120331 27.50329971 -0.135988 0.620167 0.772593
86.83209991 -10.48650360 27.50849915 -0.591706 -0.694468 0.409388
86.58979797 -10.45240021 27.50860023 0.689209 -0.698460 -0.192732
86.64630127 -10.44249725 27.50880051 -0.152030 -0.310908 0.938202
86.72540283 -10.44190216 27.50830078 -0.341187 -0.939851 -0.016489
86.78199768 -10.44499969 27.50569916 -0.953234 -0.273675 0.128244
86.61560059 -10.40170288 27.50020027 0.000000 0.000000 0.000000
86.71170044 -10.40910339 27.50790024 0.490445 -0.530618 0.691310
86.59290314 -11.01360321 27.51939964 0.683843 -0.365700 0.631366
86.54529572 -11.00019836 27.51000023 0.654504 -0.651206 0.384129
86.65100098 -11.00980377 27.51379967 0.810074 0.250330 0.530202
86.44770050 -10.98290253 27.51219940 0.000000 0.000000 0.000000
86.48300171 -10.98059845 27.51040077 0.848423 0.496529 0.183403
86.61519623 -10.98529816 27.51129913 0.000000 0.000000 0.000000
86.56780243 -10.97979736 27.51889992 -0.173428 -0.170859 0.969912
86.69650269 -10.97139740 27.51469994 0.003813 0.929082 -0.369854
86.72619629 -10.97139740 27.51379967 -0.376282 0.908513 -0.181703
86.48010254 -10.94439697 27.51399994 0.929223 -0.171356 -0.327387
86.80999756 -10.92630005 27.51289940 0.815496 -0.384608 -0.432484
86.44409943 -10.91400146 27.51440048 0.681301 0.591349 0.431435
86.73390198 -10.91670227 27.51329994 -0.020982 0.734374 -0.678421
86.83080292 -10.91419983 27.51289940 0.743761 -0.661610 -0.095354
86.42009735 -10.89489746 27.51409912 0.804726 0.561331 0.193195
86.78510284 -10.89830017 27.51549911 -0.416018 0.908284 0.044143
86.91690063 -10.89489746 27.51530075 -0.980661 0.093802 -0.171768
86.42440033 -10.87200165 27.51689911 0.100571 0.599055 -0.794367
86.89700317 -10.85070038 27.51269913 -0.159009 -0.459520 0.873818
86.92659760 -10.84130096 27.51679993 -0.256790 0.530700 0.807723
86.44090271 -10.82350159 27.51650047 0.957635 0.276364 0.080981
86.95059967 -10.82129669 27.51269913 -0.868304 0.480797 0.121993
86.88359833 -10.81289673 27.51919937 -0.303207 -0.891698 -0.336067
86.44580078 -10.72319794 27.51350021 0.557554 -0.798491 0.227037
86.92839813 -10.71569824 27.51250076 -0.899594 -0.338271 -0.276230
86.44909668 -10.68190002 27.51810074 0.900275 0.414098 0.134264
86.42949677 -10.65290070 27.51759911 0.991449 -0.102010 -0.081379
86.90049744 -10.65519714 27.51269913 -0.980910 0.136272 -0.138727
86.43879700 -10.63040161 27.51250076 0.881902 -0.407376 -0.237263
86.91334534 -10.63614655 27.51704979 -0.835547 -0.420134 0.354045
86.91870117 -10.59259796 27.51309967 -0.887663 -0.455529 -0.067435
86.42530060 -10.57379913 27.51280022 0.242665 -0.964239 -0.106567
86.86329651 -10.57450104 27.51460075 -0.729158 0.647967 0.220153
86.85960388 -10.55190277 27.51630020 -0.422804 -0.765618 -0.484837
86.51059723 -10.53839874 27.51300049 -0.251493 -0.788844 -0.560782
86.91999817 -10.50569916 27.51519966 0.000000 0.000000 0.000000
86.56780243 -10.48300171 27.51280022 0.318837 -0.946183 -0.055506
86.53990173 -10.47460175 27.51549911 -0.171509 -0.982281 0.075560
86.65129852 -10.47250366 27.51020050 -0.952935 -0.219701 0.208918
86.69419861 -10.47109985 27.51840019 -0.502169 -0.818176 -0.280026
86.73860168 -10.47370148 27.51180077 -0.693407 0.387056 -0.607761
86.78120422 -10.46430206 27.51589966 -0.749700 -0.466297 -0.469592
86.68000031 -10.45059967 27.51409912 -0.750919 -0.422289 -0.507733
86.74680328 -10.45300293 27.51759911 -0.537312 -0.839462 -0.081238
86.62469482 -10.44665146 27.51725006 0.484719 -0.850884 0.202592
86.68969727 -10.42669678 27.51000023 0.567225 -0.516730 0.641284
86.68830109 -11.04049683 27.52230072 -0.875279 0.483602 -0.003997
86.62100220 -11.03720093 27.52190018 0.808331 -0.501450 -0.308463
86.63410187 -11.00740051 27.52459908 0.268638 0.382697 0.883955
86.70230103 -11.00659943 27.52809906 -0.947701 -0.031632 0.317587
86.52010345 -10.97930145 27.52759933 0.000000 0.000000 0.000000
86.67230225 -10.96880341 27.52549934 0.641287 0.621195 0.450408
86.44709778 -10.95230103 27.52289963 0.000000 0.000000 0.000000
86.83779907 -10.94760132 27.52129936 0.000000 0.000000 0.000000
86.71890259 -10.92849731 27.52230072 -0.672678 0.718647 -0.176214
86.88800049 -10.92030334 27.52630043 0.297162 0.914678 -0.273969
86.86370087 -10.90619659 27.52000046 0.711276 0.572652 -0.407622
86.87349701 -10.88449860 27.52090073 -0.852426 0.522804 0.006755
86.45110321 -10.85240173 27.52890015 0.458852 0.568976 0.682438
86.94869995 -10.84239960 27.52890015 -0.646935 0.753524 -0.116952
86.41570282 -10.82289886 27.52630043 0.765665 0.638295 -0.079606
86.91100311 -10.82610321 27.52949905 -0.783180 -0.478340 0.397265
86.42160034 -10.80249786 27.52309990 0.860942 0.113547 -0.495868
86.95459747 -10.77349854 27.52120018 -0.766858 -0.385871 -0.512867
86.40979767 -10.76719666 27.52969933 0.410218 0.669303 0.619479
86.93939972 -10.76190186 27.52809906 -0.829380 0.165876 0.533493
86.92459869 -10.74880219 27.52179909 -0.389324 0.894711 0.218903
86.94789886 -10.72200012 27.52770042 -0.868407 -0.430428 -0.246174
86.94390106 -10.69719696 27.52939987 -0.507400 -0.262234 0.820840
86.92479706 -10.68579865 27.52610016 -0.543011 0.318758 -0.776874
86.93280029 -10.65930176 27.52490044 -0.909253 0.009132 0.416143
86.89780426 -10.62120056 27.52429962 -0.949264 -0.313920 0.018760
86.45240021 -10.60140228 27.52630043 0.581306 0.722129 -0.374983
86.90110016 -10.59649658 27.52809906 -0.723610 -0.538154 -0.432179
86.88500214 -10.56759644 27.52669907 -0.644907 -0.763446 0.035279
86.52929688 -10.55829620 27.52630043 -0.773523 -0.632626 -0.038042
86.83029938 -10.54319763 27.52109909 -0.006934 -0.664262 0.747468
86.48724365 -10.53234863 27.52624893 0.684055 -0.590851 -0.427743
86.80480194 -10.51439667 27.52359962 -0.085670 0.768127 0.634540
86.49569702 -10.50379944 27.52849960 0.949025 -0.311219 -0.049949
86.83930206 -10.50900269 27.52580070 -0.866193 0.207230 0.454714
86.88030243 -10.50070190 27.52190018 -0.423093 0.799533 0.426310
86.49340057 -10.48519897 27.52129936 0.737617 -0.453791 -0.499995
86.79560089 -10.48190022 27.52286720 -0.017187 -0.897706 0.440259
86.84030151 -10.48809814 27.52860069 -0.867647 -0.496765 0.020304
86.82050323 -10.46640015 27.52420044 0.322758 -0.705527 0.630919
86.56849670 -10.45980072 27.52650070 0.636966 -0.731332 0.243777
86.60109711 -10.45330048 27.52569962 0.144859 -0.989309 0.016844
86.65769958 -10.44920349 27.52799988 -0.333135 -0.690646 0.641895
86.63600159 -10.42990112 27.52470016 0.572072 -0.403913 0.713854
86.66760254 -10.42749786 27.52580070 0.069182 -0.910218 0.408310
86.63870239 -10.40440369 27.52939987 0.000000 0.000000 0.000000
86.55319977 -11.06469727 27.53969955 0.000000 0.000000 0.000000
86.58560181 -11.04299927 27.53070068 0.552609 0.176172 0.814608
86.53530121 -11.01799774 27.53510094 -0.083106 -0.973706 -0.212107
86.56749725 -11.01650238 27.53730011 0.113779 -0.627998 0.769852
86.68750000 -10.99449921 27.53784943 0.843598 0.335256 0.419460
86.47809601 -10.98220062 27.53739929 0.000000 0.000000 0.000000
86.71700287 -10.96630096 27.53470039 0.005658 0.985666 0.168616
86.45400238 -10.93699646 27.53380013 0.960930 -0.069817 -0.267842
86.76679993 -10.91799927 27.53350067 -0.808861 0.587634 0.020740
86.81459808 -10.91110229 27.53879929 0.236254 0.920675 -0.310710
86.43370056 -10.90129852 27.53829956 0.241595 0.951533 0.190307
86.79769897 -10.89579773 27.53949928 -0.060370 0.840965 -0.537712
86.91850281 -10.88999939 27.53820038 -0.287246 0.957067 -0.038885
86.92009735 -10.85340118 27.53989983 0.100688 0.798205 0.593911
86.42759705 -10.84709930 27.53770065 0.851493 0.523040 0.037261
86.43759918 -10.80519867 27.53829956 0.284397 0.570383 -0.770573
86.46140289 -10.80899811 27.53849983 0.136318 0.756487 -0.639644
86.94110107 -10.80809784 27.53050041 -0.790654 -0.579609 0.197281
86.38680267 -10.79250336 27.53779984 0.000000 0.000000 0.000000
86.42970276 -10.78530121 27.53599930 0.842167 0.512430 -0.167839
86.95059967 -10.74500275 27.53890038 -0.657787 0.647895 0.384121
86.42710114 -10.73840332 27.53249931 0.451104 -0.560967 0.694134
86.40640259 -10.71710205 27.53919983 0.092452 -0.001063 -0.995717
86.91490173 -10.71679688 27.53540039 -0.655217 -0.749029 -0.098209
86.45269775 -10.70420074 27.53529930 0.972415 -0.146180 -0.181772
86.41500092 -10.69159698 27.53199959 0.977065 -0.201268 0.069529
86.49759674 -10.67800140 27.53529930 0.000000 0.000000 0.000000
86.94270325 -10.67299652 27.53610039 -0.713566 0.041140 -0.699379
86.41799927 -10.66470337 27.53269958 0.931609 -0.354199 -0.081533
86.46499634 -10.64900208 27.53280067 0.503533 0.844203 -0.183782
86.93450165 -10.62840271 27.53660011 -0.893015 -0.427218 0.141454
86.41970062 -10.61150360 27.53319931 0.000000 0.000000 0.000000
86.51129913 -10.59329987 27.53960037 -0.645978 0.336820 -0.685029
86.88189697 -10.59429932 27.53790092 -0.219229 -0.110248 0.969424
86.85929871 -10.58869934 27.53170013 -0.809765 -0.445610 0.381723
86.43900299 -10.57299805 27.53689957 0.544104 0.365443 -0.755249
86.46279907 -10.57679749 27.53610039 0.700255 -0.258824 -0.665322
86.85710144 -10.55909729 27.53739929 0.415178 -0.776627 0.473791
86.46669769 -10.54940033 27.53680038 0.904558 -0.414185 0.101122
86.51799774 -10.53690338 27.53800011 -0.624758 -0.779890 0.038078
86.80529785 -10.53179932 27.53380013 -0.111547 -0.537456 0.835882
86.83550262 -10.52899933 27.53499985 -0.570092 0.821320 -0.020706
86.91210175 -10.52999878 27.53639984 -0.966689 0.113954 -0.229188
86.86250305 -10.51550293 27.53199959 -0.514081 0.691581 -0.507383
86.75430298 -10.50019836 27.53109932 -0.751471 0.067791 0.656275
86.70929718 -10.48729706 27.53370094 -0.524415 0.273948 0.806190
86.51589966 -10.47779846 27.53440094 0.344359 -0.429269 -0.834952
86.76380157 -10.47039795 27.53890038 -0.856289 -0.454761 -0.244871
86.88639832 -10.46929932 27.53770065 0.000000 0.000000 0.000000
86.52330017 -10.45770264 27.53219986 -0.623687 0.145777 -0.767961
86.61820221 -10.45400238 27.53980064 0.143769 -0.976382 0.161272
86.72049713 -10.45649719 27.53050041 -0.817221 0.567555 -0.100157
86.59439850 -10.43720245 27.53650093 -0.488803 -0.854291 0.176801
86.72019958 -10.43180084 27.53520012 -0.793418 -0.484420 -0.368545
86.68080139 -11.05090332 27.54540062 -0.720860 0.620875 -0.308018
86.62110138 -11.02610016 27.54170036 0.666450 -0.518723 -0.535510
86.65200043 -11.02059937 27.54990005 -0.001380 0.755050 -0.655665
86.67990112 -11.02539825 27.54610062 0.587752 0.190829 0.786214
86.50879669 -10.99690247 27.54369926 0.037702 -0.932145 -0.360117
86.59729767 -10.99620056 27.54129982 0.439229 -0.745208 0.501740
86.66239929 -10.99970245 27.54770088 0.506022 -0.107512 0.855794
86.70690155 -10.99510193 27.54899979 0.417849 0.752129 -0.509612
86.68509674 -10.97579956 27.54759979 0.472606 0.686364 0.552765
86.72190094 -10.97959900 27.54990005 -0.641100 0.714642 0.279782
86.50360107 -10.95159912 27.54420090 0.198452 0.069397 -0.977651
86.75980377 -10.94599915 27.54780006 -0.620981 -0.405708 -0.670659
86.84279633 -10.94409943 27.54229927 0.582227 0.442092 -0.682324
86.49199677 -10.93520355 27.54299927 0.624851 0.149061 -0.766383
86.52330017 -10.93779755 27.54920006 0.198452 0.069397 -0.977651
86.79229736 -10.91699982 27.54070091 -0.008960 0.927997 0.372479
86.46089935 -10.90869904 27.54949951 0.534355 0.504203 -0.678413
86.50530243 -10.90769958 27.54780006 0.000000 0.000000 0.000000
86.90589905 -10.90740204 27.54730034 -0.685677 0.685677 -0.244322
86.41369629 -10.89969635 27.54910088 0.568884 0.787087 0.238464
86.88600159 -10.87619781 27.54590034 -0.460201 0.844984 0.272427
86.94699860 -10.82669830 27.54369926 -0.707914 0.647190 -0.282846
86.96810150 -10.81330109 27.54369926 -0.486771 -0.873520 -0.004001
86.40609741 -10.80970001 27.54910088 0.675109 0.737124 0.029598
86.93610382 -10.79100037 27.54030037 -0.676821 -0.430704 -0.596999
86.43830109 -10.71690369 27.54140091 0.218162 -0.975102 0.039775
86.46530151 -10.69239807 27.54929924 0.531886 0.562279 -0.633198
86.91899872 -10.67489624 27.54800034 -0.870610 -0.444978 -0.209839
86.92690277 -10.65560150 27.54780006 -0.843170 -0.226365 -0.487671
86.44029999 -10.63259888 27.54050064 0.766973 0.641240 0.023750
86.91249847 -10.62570190 27.54739952 -0.833030 -0.535203 0.140067
86.49549866 -10.61519623 27.54369926 -0.196404 -0.041661 -0.979638
86.46970367 -10.60430145 27.54840088 0.437902 -0.209302 -0.874319
86.91280365 -10.59819794 27.54920006 -0.484713 -0.750895 -0.448565
86.87200165 -10.57319641 27.54459953 -0.201177 -0.836471 0.509748
86.89659882 -10.56710052 27.54470062 -0.981664 0.170252 -0.085730
86.50279999 -10.54650116 27.54800034 0.028692 -0.515087 -0.856657
86.49919891 -10.52040100 27.54369926 0.577914 -0.520628 -0.628460
86.82589722 -10.51020050 27.54170036 -0.710507 0.616206 0.339808
86.55609894 -10.50180054 27.54890060 0.145012 -0.784857 -0.602471
86.78980255 -10.50939941 27.54350090 0.763048 -0.139417 0.631126
86.53939819 -10.48870087 27.54759979 -0.434587 -0.779652 0.450863
86.80590057 -10.48249817 27.54730034 0.685725 -0.707106 -0.172577
86.85510254 -10.48909760 27.54669952 -0.375934 -0.912172 0.163141
86.55690002 -10.47879791 27.54170036 0.219558 -0.809140 -0.545056
86.74230194 -10.47209930 27.54680061 -0.312787 -0.943685 -0.107812
86.68309784 -10.45539856 27.54019928 -0.781208 -0.524549 0.338470
86.64360046 -10.44010162 27.54780006 -0.204803 -0.974366 -0.093092
86.75029755 -10.44920349 27.54759979 -0.374400 -0.908027 -0.187917
86.83879852 -10.44860077 27.54109955 0.636181 -0.763122 0.113657
86.68270111 -10.42700195 27.54990005 -0.910357 0.083256 0.405362
86.55780029 -11.04959869 27.55760002 0.000000 0.000000 0.000000
86.70059967 -11.02989960 27.55130005 -0.697612 0.700638 0.149813
86.74220276 -11.01149750 27.55940056 -0.922984 0.016829 -0.384469
86.54740143 -11.00540161 27.55310059 -0.008377 -0.968178 0.250123
86.57360077 -10.99810028 27.55909920 0.360916 -0.931607 0.042997
86.44349670 -10.97070313 27.55400085 -0.206063 -0.852830 0.479811
86.47190094 -10.97630310 27.55629921 0.225724 -0.959658 0.167643
86.74379730 -10.97859955 27.55699921 -0.571596 -0.294555 0.765843
86.78220367 -10.95520020 27.55900002 -0.479050 0.692704 0.539140
86.86720276 -10.94149780 27.55240059 0.299884 0.209778 -0.930625
86.45269775 -10.92929840 27.55769920 0.812439 0.583045 -0.001365
86.80169678 -10.92980194 27.55489922 -0.793193 0.576173 0.197152
86.43190002 -10.91169739 27.55830002 0.607678 0.785102 -0.119761
86.75654602 -10.91590118 27.55500031 -0.969707 -0.152437 -0.190867
86.84519958 -10.91639709 27.55100060 0.207883 0.414293 -0.886085
86.87049866 -10.91320038 27.55820084 0.156378 -0.026253 -0.987348
86.77230072 -10.90239716 27.55039978 -0.372089 0.534574 -0.758802
86.93640137 -10.89379883 27.55739975 0.292738 0.947723 -0.126987
86.80930328 -10.88230133 27.55139923 0.354481 0.430104 -0.830273
86.86849976 -10.88970184 27.55089951 -0.923783 0.014172 -0.382655
86.90989685 -10.88569641 27.55809975 0.341291 0.658087 -0.671150
86.43409729 -10.86289978 27.55489922 0.394769 0.675566 0.622710
86.90139771 -10.86499786 27.55690002 -0.746697 0.446699 -0.492853
86.40460205 -10.85569763 27.55060005 0.115860 0.811019 -0.573433
86.92569733 -10.83419800 27.55170059 -0.314150 0.928362 0.198633
86.94950104 -10.80829620 27.55960083 -0.646274 -0.301380 0.701070
86.44300079 -10.78949738 27.55719948 -0.634437 -0.032355 -0.772297
86.43170166 -10.77179718 27.55890083 -0.239174 0.764418 -0.598716
86.91190338 -10.77539825 27.55500031 0.000000 0.000000 0.000000
86.95230103 -10.77919769 27.55830002 -0.930836 -0.159532 0.328775
86.93769836 -10.73410034 27.55069923 -0.709155 -0.587398 -0.389953
86.97519684 -10.73509979 27.55500031 0.000000 0.000000 0.000000
86.45099640 -10.72760010 27.55459976 0.599728 0.606486 0.522017
86.92310333 -10.71479797 27.55640030 -0.692488 -0.305082 0.653747
86.41940308 -10.68360138 27.55990028 0.806474 -0.173354 -0.565286
86.44809723 -10.67849731 27.54999924 0.290078 0.911049 -0.292993
86.42939758 -10.65830231 27.55870056 0.620875 -0.308018 -0.720860
86.45120239 -10.63490295 27.55960083 0.579495 -0.589632 0.562600
86.47949982 -10.58249664 27.55419922 0.578652 -0.813509 -0.058007
86.50319672 -10.57689667 27.55529976 0.274125 0.254240 -0.927479
86.48690033 -10.56250000 27.55010033 0.363537 0.021838 -0.931324
86.84950256 -10.55660248 27.55629921 -0.187884 -0.786669 0.588092
86.88359833 -10.54679871 27.55340004 -0.120458 -0.523920 0.843207
86.47679901 -10.53919983 27.55879974 0.593544 -0.299172 0.747129
86.83950043 -10.51670074 27.55990028 -0.675380 -0.595335 0.435245
86.57669830 -10.49320221 27.55990028 0.132167 -0.979515 -0.151930
86.82550049 -10.49839783 27.55859947 -0.374963 -0.764535 -0.524299
86.77459717 -10.48930359 27.55319977 -0.392780 -0.721467 0.570271
86.77010345 -10.46730042 27.55789948 0.595768 -0.688701 -0.413221
86.81960297 -10.46309662 27.55120087 0.598316 -0.611799 0.517417
86.60030365 -10.45210266 27.55769920 0.460442 -0.887323 0.025506
86.72219849 -10.45159912 27.55439949 -0.584339 -0.788782 0.190711
86.69789886 -10.44329834 27.55620003 0.406315 -0.912543 -0.046626
86.62370300 -10.43489838 27.55360031 0.495311 -0.820310 0.285936
86.69290161 -10.40380096 27.55570030 -0.782930 0.197648 0.589878
86.58450317 -11.03009796 27.56749916 -0.138789 -0.777516 0.613357
86.63700104 -11.00260162 27.56459999 -0.027517 0.993903 -0.106765
86.53189850 -10.99960327 27.56590080 -0.208517 -0.859571 -0.466539
86.65789795 -10.97029877 27.56539917 0.000000 0.000000 0.000000
86.71879578 -10.96350098 27.56870079 -0.610794 0.499740 -0.614159
86.75759888 -10.96489716 27.56900024 -0.339908 0.707465 0.619642
86.81939697 -10.91480255 27.56590080 -0.043150 0.985444 0.164435
86.74649811 -10.89720154 27.56719971 -0.483599 0.281451 -0.828805
86.92169952 -10.86139679 27.56789970 -0.900223 0.291205 0.323725
86.43080139 -10.84110260 27.56360054 -0.549418 0.773670 0.315555
86.38629913 -10.83630371 27.56430054 0.000000 0.000000 0.000000
86.45390320 -10.83820343 27.56669998 0.000000 0.000000 0.000000
86.41870117 -10.82399750 27.56040001 0.809084 0.392526 -0.437386
86.41660309 -10.80390167 27.56710052 -0.504909 0.455246 -0.733360
86.94190216 -10.75370026 27.56900024 -0.920633 -0.361827 -0.146687
86.94210052 -10.71679688 27.56859970 -0.923313 0.146226 0.355120
86.95629883 -10.70179749 27.56949997 -0.956288 -0.272666 -0.105674
86.47869873 -10.66120148 27.56200027 0.000000 0.000000 0.000000
86.46369934 -10.61740112 27.56250000 0.609530 -0.562254 -0.558877
86.89820099 -10.61434937 27.56724930 -0.882138 -0.167127 -0.440342
86.86630249 -10.58840179 27.56780052 -0.866701 -0.214056 -0.450565
86.88500214 -10.56939697 27.56369972 -0.862566 -0.150329 -0.483095
86.82730103 -10.54219818 27.56100082 -0.954905 -0.260910 0.141713
86.86859894 -10.53250122 27.56520081 0.439325 -0.381813 0.813150
86.90439606 -10.53089905 27.56839943 -0.533355 0.844128 0.054595
86.51989746 -10.51390076 27.56579971 -0.517999 -0.784215 0.341591
86.85309601 -10.50080109 27.56380081 -0.094126 -0.806583 -0.583578
86.60639954 -10.49320221 27.56310081 0.000000 0.000000 0.000000
86.53579712 -10.47180176 27.56739998 -0.910149 -0.381950 0.160447
86.68520355 -10.46430206 27.56629944 0.603619 -0.735610 0.307443
86.57440186 -10.45420074 27.56850052 -0.792130 0.046596 -0.608571
86.79710388 -10.45950317 27.55999947 0.150203 -0.422000 0.894067
86.86900330 -10.45870209 27.56139946 0.000000 0.000000 0.000000
86.65540314 -10.44539642 27.56389999 -0.254990 -0.951152 -0.174041
86.78129578 -10.44210052 27.56970024 0.258107 -0.625474 0.736317
86.64070129 -10.42620087 27.56760025 -0.741808 -0.654537 -0.145954
86.52849579 -11.06320190 27.57950020 0.000000 0.000000 0.000000
86.63140106 -11.04039764 27.57900047 0.000000 0.000000 0.000000
86.67970276 -11.02870178 27.57010078 0.577659 0.812735 -0.075970
86.71520233 -11.02860260 27.57040024 -0.232788 0.972510 0.005908
86.55840302 -11.01699829 27.57819939 -0.265387 -0.684922 -0.678566
86.65840149 -11.01020050 27.57379913 0.498455 0.832803 0.240792
86.46099854 -10.99259949 27.57239914 0.630552 -0.748296 -0.206053
86.50590515 -10.99885178 27.57619858 -0.876824 0.234517 -0.419740
86.71140289 -10.99299622 27.57500076 -0.638073 0.671048 0.377568
86.43589783 -10.95880127 27.57189941 0.884237 0.462121 0.067594
86.47669983 -10.95400238 27.57710075 0.927568 0.333366 -0.168775
86.75189972 -10.94470215 27.57169914 -0.562465 0.630029 -0.535440
86.45929718 -10.93419647 27.57880020 0.662488 0.672254 0.330430
86.76779938 -10.93440247 27.57970047 0.456054 0.332967 -0.825316
86.79830170 -10.91159821 27.57270050 0.110651 0.975967 0.187734
86.40509796 -10.89179993 27.57200050 0.000000 0.000000 0.000000
86.46759796 -10.89689636 27.57740021 0.483228 0.758422 -0.437362
86.89140320 -10.89009857 27.57609940 0.047087 0.950641 0.306699
86.44210052 -10.88480377 27.57010078 0.824605 0.051977 -0.563316
86.85579681 -10.88089752 27.57169914 0.000000 0.000000 0.000000
86.88990021 -10.84130096 27.57749939 0.470884 0.784807 -0.402922
86.93190002 -10.83470154 27.57369995 -0.872654 0.385308 0.300022
86.97609711 -10.83149719 27.56999969 0.000000 0.000000 0.000000
86.98290253 -10.78440094 27.57950020 0.045890 -0.529816 0.846870
86.41079712 -10.77429962 27.57679939 -0.477494 0.302152 -0.825047
86.37270355 -10.74990082 27.57229996 0.142946 -0.714730 -0.684636
86.40480042 -10.74259949 27.57139969 0.110465 0.062635 -0.991904
86.92375183 -10.74555206 27.57530022 -0.996038 -0.087032 -0.018266
86.42769623 -10.72080231 27.57729912 -0.440415 0.274684 -0.854742
86.43610382 -10.69300079 27.57110023 0.644870 -0.580888 -0.496701
86.93710327 -10.69029999 27.57029915 -0.832442 -0.383839 0.399635
86.46859741 -10.67340088 27.57509995 0.486951 -0.773584 -0.405521
86.92669678 -10.67199707 27.57299995 -0.946128 -0.314506 -0.076995
86.90940094 -10.66169739 27.57379913 -0.782403 0.554795 -0.282929
86.88755035 -10.59670258 27.57450104 -0.853144 -0.463831 0.238759
86.46409607 -10.58249664 27.57909966 0.887066 0.011969 0.461487
86.51609802 -10.56369781 27.57229996 -0.966968 0.226693 0.116548
86.45950317 -10.55110168 27.57579994 0.944307 -0.153094 0.291285
86.84840393 -10.55110168 27.57629967 -0.709979 -0.146217 0.688876
86.86810303 -10.55400085 27.57239914 -0.647070 -0.689235 -0.325968
86.51969910 -10.53399658 27.57699966 -0.306927 -0.093527 -0.947127
86.54149628 -10.52729797 27.57710075 0.586355 -0.723552 -0.364226
86.85569763 -10.52149963 27.57900047 -0.943952 -0.316416 -0.093998
86.81400299 -10.51010132 27.57859993 -0.402543 -0.859066 -0.316173
86.47340393 -10.50779724 27.57939911 0.300253 -0.624590 -0.720927
86.55660248 -10.50810242 27.57900047 0.792125 -0.602482 -0.097739
86.78540039 -10.49880219 27.57229996 -0.311648 -0.923558 0.223419
86.63770294 -10.48840332 27.57929993 0.000000 0.000000 0.000000
86.80650330 -10.48529816 27.57929993 -0.003032 -0.999505 0.031329
86.75540161 -10.47399902 27.57290077 -0.464670 -0.885403 0.011983
86.59580231 -10.46540070 27.57880020 0.631135 -0.673979 -0.383954
86.64309692 -10.45780182 27.57600021 -0.997037 0.076857 -0.003159
86.73470306 -10.45629883 27.57659912 -0.752587 -0.649088 0.110892
86.68270111 -10.44560242 27.57710075 -0.261984 -0.639877 -0.722442
86.61000061 -10.43379974 27.57550049 0.492997 -0.829903 -0.261180
86.72000122 -10.42780304 27.57220078 -0.844905 -0.413863 0.338899
86.63739777 -10.40799713 27.57740021 -0.933000 0.024451 -0.359044
86.70549774 -10.40499878 27.57279968 -0.725522 -0.473167 0.499730
86.51879883 -11.02200317 27.58099937 -0.042690 -0.863441 -0.502641
86.73159790 -11.02269745 27.58440018 -0.553793 0.700141 -0.450684
86.49009705 -11.01779938 27.58079910 -0.267489 0.403501 -0.875007
86.59220123 -11.01419830 27.58939934 -0.093980 -0.971124 0.219286
86.69529724 -10.99359894 27.58690071 -0.357284 -0.774385 -0.522184
86.47809601 -10.98030090 27.58440018 0.493130 -0.769804 -0.405246
86.74880219 -10.98079681 27.58909988 -0.499326 0.865224 0.045393
86.50790405 -10.97319794 27.58149910 0.215636 -0.324168 -0.921095
86.77790070 -10.97070313 27.58419991 -0.400511 0.880525 0.253507
86.73290253 -10.94480133 27.58559990 -0.386495 0.761574 -0.520218
86.79820251 -10.94120026 27.58099937 -0.383784 0.880446 -0.278432
86.43810272 -10.91210175 27.58440018 0.780907 0.401006 0.478935
86.77899933 -10.91660309 27.58460045 -0.340456 0.682542 0.646704
86.84510040 -10.90879822 27.58900070 0.084682 0.825289 0.558326
86.92279816 -10.88549805 27.58219910 -0.629798 0.731327 -0.261755
86.42790222 -10.85330200 27.58670044 0.480859 0.735334 0.477554
86.93309784 -10.85510254 27.58600044 -0.961421 0.178041 -0.209693
86.91419983 -10.84590149 27.58069992 -0.341366 0.936432 -0.081025
86.42340088 -10.80519867 27.58620071 0.615006 0.362444 -0.700287
86.92359924 -10.80310059 27.58440018 -0.264216 0.745183 0.612284
86.94989777 -10.78279877 27.58230019 -0.173209 0.435206 0.883512
86.93830109 -10.76280212 27.58699989 -0.675382 -0.384753 -0.629146
86.43340302 -10.75389862 27.58069992 0.693769 0.611374 -0.380667
86.95899963 -10.75440216 27.58609962 -0.453061 -0.492601 0.743021
