81.49580383 2.73500061 27.79640007 -0.894671 0.446677 0.006588
81.91749573 2.74510193 27.79599953 0.589223 0.807960 0.004101
81.53389740 2.77570343 27.79120064 -0.627116 -0.079657 0.774843
81.62969971 2.77980042 27.79080009 -0.009527 0.834309 -0.551215
81.76380157 2.77410126 27.79470062 -0.587707 0.807569 -0.049328
81.56800079 2.78919983 27.79730034 0.252461 0.782471 -0.569212
81.65139771 2.78299713 27.79190063 -0.320964 0.916833 -0.237484
81.89369965 2.79160309 27.79229927 0.733295 0.542144 -0.410316
81.69680023 2.80590057 27.79579926 0.009179 0.900850 -0.434034
81.77754974 2.81484985 27.79534912 -0.744128 0.493336 0.450437
81.83730316 2.81140137 27.79680061 0.222616 0.917752 0.328897
81.59180450 2.82810211 27.79700089 -0.528414 0.222087 -0.819424
81.86879730 2.82330322 27.79990005 0.576982 0.782269 -0.234836
81.61440277 2.83540344 27.79809952 -0.258791 0.239207 -0.935846
81.80799866 2.83309937 27.79339981 -0.284463 0.929813 -0.233515
81.60459900 2.85279846 27.79089928 0.491348 0.498010 -0.714537
81.58609772 2.86129761 27.79770088 -0.237291 0.671016 -0.702446
81.80249786 2.86039734 27.79500008 0.267967 0.906403 -0.326539
81.80640411 2.27010345 27.80820084 -0.545155 -0.701867 0.458464
81.71489716 2.28890228 27.80940056 -0.428376 -0.903171 -0.027851
81.74810028 2.29460144 27.80859947 -0.049975 -0.986716 0.154574
81.76940155 2.30580139 27.80960083 0.295026 -0.939967 0.171527
81.79180145 2.30590057 27.80769920 0.860467 -0.344496 0.375392
81.89690399 2.30290222 27.80739975 0.903612 -0.281550 -0.322824
81.64710236 2.33209991 27.80249977 -0.782358 -0.621076 -0.046687
81.66830444 2.34339905 27.80459976 -0.966768 -0.248241 -0.061125
81.92639923 2.34410095 27.80220032 -0.119822 -0.965018 -0.233202
81.62310028 2.35479736 27.80010033 -0.822287 -0.402396 0.402396
81.86920166 2.35749817 27.80270004 0.260334 -0.947289 -0.186732
81.89920044 2.35890198 27.80690002 0.190105 -0.898280 0.396172
81.96459961 2.35669708 27.80730057 0.530040 -0.795851 0.292709
81.67120361 2.38549805 27.80310059 -0.962704 0.035839 -0.268173
81.90019989 2.38330078 27.80559921 0.455323 -0.850856 0.262156
81.92939758 2.38400269 27.80179977 -0.149525 -0.653984 0.741584
81.96230316 2.39559937 27.80890083 0.173387 -0.556347 0.812659
81.65550232 2.41940308 27.80769920 -0.703234 -0.651973 0.283536
82.00650024 2.41190338 27.80800056 0.419351 -0.568527 0.707758
81.63549805 2.42089844 27.80850029 -0.598246 -0.709700 0.372060
82.07460022 2.42790222 27.80529976 0.708662 -0.699895 0.089131
81.93019867 2.43679810 27.80830002 0.904679 -0.425186 0.027816
81.95349884 2.43370056 27.80139923 0.520855 0.299214 0.799488
81.62819672 2.44360352 27.80929947 -0.755486 -0.590074 0.284699
81.95220184 2.45429993 27.80719948 0.350055 -0.899508 -0.261433
82.04430389 2.45490265 27.80780029 0.245364 -0.786104 0.567307
82.08329773 2.45140076 27.80809975 0.043480 -0.983591 0.175096
82.09550476 2.47689819 27.80990028 0.826617 -0.560869 0.046156
81.57640076 2.48390198 27.80150032 -0.897999 -0.286469 0.333966
82.11489868 2.48930359 27.80789948 0.811391 -0.578744 0.081857
81.56150055 2.50170135 27.80419922 -0.859287 0.319340 0.399561
81.58049774 2.50920105 27.80929947 -0.566473 0.352219 0.745017
82.14299774 2.51779938 27.80680084 0.537079 -0.706683 -0.460591
81.59909821 2.53759766 27.80909920 -0.653401 0.606611 0.452869
81.57369995 2.54399872 27.80489922 -0.791467 0.541863 0.282780
81.62239838 2.56430054 27.80299950 -0.760507 0.376182 -0.529261
82.13970184 2.56199646 27.80830002 0.554622 -0.448028 -0.701189
81.59180450 2.61239624 27.80330086 -0.807049 -0.434812 0.399513
81.65319824 2.63140106 27.80649948 -0.843070 -0.494944 0.210389
81.52649689 2.64779663 27.80150032 -0.721216 -0.515628 0.462573
81.55110168 2.64459991 27.80970001 -0.609674 -0.659784 0.439299
82.16190338 2.64250183 27.80360031 0.930924 0.078801 -0.356609
81.53769684 2.66560364 27.80039978 -0.712231 -0.573421 0.404865
81.52040100 2.67960358 27.80710030 -0.774066 -0.218724 0.594123
81.97719574 2.67549896 27.80909920 0.933483 0.332118 -0.135307
82.09099579 2.67559814 27.80480003 0.131579 0.988588 0.073358
81.99860382 2.68669891 27.80509949 0.547132 0.836546 0.028941
81.97029877 2.71250153 27.80660057 0.538247 0.642860 -0.544997
81.52829742 2.75099945 27.80240059 -0.359301 0.877786 0.316852
81.89270020 2.76159668 27.80859947 0.401294 0.907456 0.124443
81.83540344 2.77709961 27.80109978 0.463075 0.875659 -0.137047
81.87414551 2.77399826 27.80540085 0.240327 0.940471 0.240327
81.77759552 2.78595352 27.80665016 -0.672256 0.568316 0.474435
81.71509552 2.79650116 27.80419922 0.460376 0.879418 -0.121152
81.85970306 2.79859924 27.80909920 0.950437 0.098321 -0.294963
81.55400085 2.80180359 27.80410004 -0.487672 0.873026 -0.001329
81.67410278 2.81430054 27.80369949 0.106373 0.808723 0.578492
81.72000122 2.81870270 27.80699921 -0.129496 0.763580 -0.632595
81.66259766 2.83419800 27.80439949 0.294377 -0.092892 -0.951164
81.69459534 2.83809662 27.80960083 0.715937 -0.111170 -0.689257
81.83190155 2.83660126 27.80450058 0.546410 0.826242 -0.136971
81.65950012 2.88569641 27.80789948 -0.181324 0.784723 -0.592732
81.69599915 2.88040161 27.80419922 0.519505 0.748940 -0.411343
81.75119781 2.26349640 27.81690025 -0.032131 -0.806077 0.590937
81.78720093 2.28890228 27.81990051 0.269980 -0.778363 0.566800
81.68000031 2.29530334 27.81909943 -0.550283 -0.831823 -0.072518
81.81719971 2.30329895 27.81789970 0.379162 -0.592543 0.710724
81.65270233 2.31580353 27.81769943 -0.852802 -0.485395 0.192665
81.68099976 2.32540131 27.81080055 -0.682732 -0.728534 0.055821
81.83029938 2.32929993 27.81570053 0.547877 -0.836233 -0.023343
81.81529999 2.34349823 27.81550026 0.771087 0.061515 0.633751
81.64410400 2.36840057 27.81909943 -0.819805 -0.472296 0.323815
81.58090210 2.40989685 27.81629944 -0.777627 -0.569418 0.266570
81.93789673 2.41339874 27.81949997 0.582937 -0.778804 -0.231620
81.97209930 2.41380310 27.81979942 0.297640 -0.508665 0.807880
81.58160400 2.42929840 27.81010056 -0.951020 -0.305092 0.049785
81.97570038 2.43979645 27.81649971 -0.631998 -0.763477 0.132973
81.57730103 2.45269775 27.81679916 -0.936949 -0.213006 0.277047
81.55909729 2.47190094 27.81450081 -0.793850 -0.275096 0.542333
81.60209656 2.47329712 27.81579971 -0.753644 -0.474516 0.454813
82.07520294 2.47709656 27.81380081 0.659939 -0.672975 0.334043
82.10369873 2.51059723 27.81159973 0.783684 -0.615648 -0.082569
82.09709930 2.53019714 27.81130028 0.799516 -0.419867 -0.429519
81.64730072 2.56250000 27.81609917 -0.992116 0.121643 -0.030132
82.15990448 2.56189728 27.81439972 0.983386 -0.134263 -0.122167
82.17630005 2.57710266 27.81340027 0.807122 0.375592 -0.455505
81.63949585 2.58959961 27.81879997 -0.907165 0.388785 0.160926
82.13400269 2.58580017 27.81900024 0.710479 0.169598 -0.682976
81.62229919 2.60359955 27.81959915 -0.794123 0.157624 -0.586961
81.63610077 2.64320374 27.81819916 -0.097570 -0.799491 0.592701
81.58969879 2.65280151 27.81979942 -0.442892 -0.827468 0.345172
82.02369690 2.65290070 27.81159973 -0.279233 0.865163 -0.416560
82.12940216 2.65640259 27.81719971 0.565590 0.824067 -0.031962
81.61019897 2.66349792 27.81789970 -0.102463 -0.922170 0.372966
82.12650299 2.67939758 27.81500053 0.426629 0.903055 0.049796
81.56130219 2.68800354 27.81529999 -0.951902 -0.065516 0.299316
82.15129852 2.68329620 27.81010056 0.709089 0.665066 -0.234267
81.54029846 2.69120026 27.81110001 -0.933308 0.129816 0.334789
82.10160065 2.69429779 27.81170082 0.360417 0.911812 0.196722
81.55149841 2.70899963 27.81299973 -0.988433 -0.078373 0.129841
82.00799561 2.71649933 27.81279945 0.006874 0.801463 -0.598004
81.50790405 2.72160339 27.81959915 0.055951 0.982119 -0.179757
81.96749878 2.72989655 27.81850052 0.261632 0.964995 0.018253
81.99290466 2.73660278 27.81949997 0.023854 0.950403 -0.310105
82.02410126 2.73030090 27.81080055 0.566031 0.582927 -0.582927
81.50099945 2.74919891 27.81730080 -0.230024 0.727627 0.646258
81.56030273 2.74549866 27.81469917 -0.738591 0.503960 0.447781
81.86080170 2.76149750 27.81940079 0.348655 0.856917 0.379647
81.58570099 2.78189850 27.81749916 -0.505347 0.283182 0.815127
81.73750305 2.78189850 27.81620026 0.439626 0.871800 -0.216087
81.53639984 2.79779816 27.81599998 -0.509573 0.846335 -0.155088
81.80559540 2.79039764 27.81879997 -0.104824 0.677664 -0.727862
81.62159729 2.80000305 27.81850052 -0.590895 -0.747826 -0.302653
81.78910065 2.80699921 27.81349945 -0.437569 0.796020 0.418193
81.55419922 2.81970215 27.81710052 -0.659501 0.735305 -0.156158
81.59300232 2.81140137 27.81719971 -0.480149 0.677562 0.557106
81.57610321 2.82299805 27.80999947 -0.795980 0.128958 -0.591427
81.76039886 2.82790375 27.81209946 0.305976 0.909144 -0.282552
81.63190460 2.83029938 27.81730080 -0.726310 0.687126 0.018193
81.58979797 2.84619904 27.81979942 -0.699037 0.713333 0.050033
81.74009705 2.84470367 27.81879997 -0.107379 0.636917 -0.763418
81.60559845 2.86799622 27.81170082 -0.040001 0.856563 -0.514490
81.69169617 2.86119843 27.81830025 0.654574 0.255173 -0.711632
81.71599579 2.86019897 27.81850052 0.636797 0.633454 -0.439574
81.81809998 2.86000061 27.81819916 0.443995 0.886561 -0.129915
81.64029694 2.87120056 27.81690025 -0.261913 0.636528 -0.725420
81.73100281 2.29340363 27.82150078 -0.219608 -0.888748 0.402368
81.70880127 2.30770111 27.82220078 -0.272693 -0.944148 0.184993
81.73770142 2.31079865 27.82929993 0.125045 -0.965557 0.228176
81.66480255 2.33779907 27.82460022 -0.884879 -0.395435 0.246214
81.69010162 2.33149719 27.82780075 -0.288266 -0.947926 0.135418
81.79399872 2.33599854 27.82640076 0.497900 -0.707717 0.501230
81.89969635 2.33570099 27.82509995 0.182573 -0.425030 0.886576
81.83609772 2.34619904 27.82760048 0.363112 -0.916964 0.165308
81.94010162 2.34120178 27.82029915 0.272414 -0.820356 0.502799
81.91059875 2.36889648 27.82979965 0.226783 -0.661582 0.714758
81.66380310 2.37280273 27.82819939 -0.973318 -0.192649 0.124655
81.86840057 2.37740326 27.82150078 0.454996 -0.883061 -0.114812
81.94999695 2.37960052 27.82099915 0.419730 0.317508 0.850303
81.92649841 2.38490295 27.82679939 0.497435 -0.838185 -0.223617
81.99140167 2.38349915 27.82719994 0.552261 -0.830521 -0.072404
81.61429596 2.39459991 27.82769966 -0.526722 -0.550281 0.647885
81.90249634 2.39089966 27.82460022 0.483621 -0.859934 -0.163167
81.63310242 2.40419769 27.82369995 -0.892368 -0.383289 0.238261
81.66729736 2.40820313 27.82489967 -0.772377 -0.632980 0.052630
81.99140167 2.40959930 27.82789993 0.523879 -0.635056 0.567676
82.04090118 2.41750336 27.82719994 0.197152 -0.793193 0.576173
81.63939667 2.42600250 27.82749939 -0.666532 -0.743604 -0.052809
81.99539948 2.43119812 27.82670021 0.208444 -0.776646 0.594451
82.02600098 2.43530273 27.82690048 0.421879 -0.709749 0.564159
82.06839752 2.45989990 27.82690048 0.206891 -0.975694 -0.072228
82.10600281 2.46600342 27.82309914 0.853499 -0.472823 -0.219039
81.59379578 2.50129700 27.82439995 -0.654287 0.395885 0.644348
82.08679962 2.50360107 27.82460022 0.922687 -0.365489 0.122749
82.13240051 2.50650024 27.82279968 0.010059 -0.989171 -0.146420
82.17679596 2.50759888 27.82509995 0.667670 -0.523036 -0.529764
81.61820221 2.51689911 27.82439995 -0.738383 0.672938 -0.044104
82.11190033 2.53869629 27.82939911 0.614821 -0.771925 -0.161636
82.13790131 2.53500366 27.82659912 0.606512 -0.698557 -0.379686
81.63109589 2.54879761 27.82220078 -0.950581 0.269488 0.154184
82.19920349 2.55979919 27.82169914 0.625759 -0.554918 -0.548171
82.16490173 2.60434723 27.82349968 0.999525 0.029428 -0.009133
82.14880371 2.61660004 27.82579994 0.998299 -0.055519 -0.017808
81.57379913 2.62380219 27.82600021 -0.674286 -0.641474 0.365854
81.66010284 2.63729858 27.82950020 -0.794993 -0.427329 0.430554
81.56300354 2.65370178 27.82970047 -0.753658 -0.601978 0.263859
82.18190002 2.65200043 27.82460022 0.980288 0.196990 0.015153
81.64229584 2.66149902 27.82810020 -0.540551 -0.797509 0.267925
82.15900421 2.66940308 27.82229996 0.579217 0.698712 0.419891
81.54219818 2.67720032 27.82929993 -0.953322 -0.117352 0.278217
81.97419739 2.69509888 27.82189941 0.800716 0.595915 -0.061156
82.02285004 2.69229889 27.82320023 0.802025 0.469049 -0.369796
82.07049561 2.69480133 27.82749939 -0.070926 0.877538 -0.474232
82.17040253 2.69799805 27.82609940 -0.405148 0.689578 -0.600281
81.53359985 2.72969818 27.82169914 -0.824155 -0.508718 0.248947
81.93299866 2.72820282 27.82329941 0.385946 0.886632 -0.254814
82.06870270 2.72930145 27.82509995 -0.350327 0.371934 -0.859614
81.92089844 2.75839996 27.82390022 0.756920 0.640470 -0.129886
81.88960266 2.76200104 27.82900047 0.450224 0.832994 0.321589
81.90570068 2.77839661 27.82760048 0.564957 0.822657 -0.063717
81.76460266 2.79509735 27.82150078 -0.502687 0.840831 -0.200773
81.81850433 2.81300354 27.82959938 -0.296362 0.949675 -0.101422
81.85739899 2.81479645 27.82929993 0.695890 0.718114 0.006945
81.68859863 2.82140350 27.82069969 -0.052636 -0.157908 -0.986050
81.71649933 2.82969666 27.82579994 0.702042 0.265852 -0.660651
81.78250122 2.82669830 27.82229996 0.194952 0.964294 -0.179251
81.61360168 2.84600067 27.82299995 -0.752729 0.306549 0.582603
81.84660339 2.84510040 27.82649994 0.514977 0.821180 0.245890
81.56909943 2.86380005 27.82150078 -0.805445 0.497247 -0.322496
81.74819946 2.87480164 27.82259941 0.070167 0.602865 -0.794751
81.68460083 2.89469910 27.82089996 0.253931 0.838741 -0.481699
81.71549988 2.28250122 27.83250046 -0.338909 -0.841806 0.420122
81.75229645 2.28230286 27.83869934 0.273909 -0.906683 0.320781
81.77149963 2.29689789 27.83769989 0.200992 -0.867987 0.454093
81.66930389 2.30650330 27.83489990 -0.607311 -0.791083 0.073222
81.80049896 2.30349731 27.83180046 0.243927 -0.744371 0.621620
81.83860016 2.30879974 27.83099937 0.656737 -0.751583 -0.061794
81.88629913 2.31780243 27.83020020 0.467767 0.759916 -0.451354
81.81980133 2.32890320 27.83869934 0.516967 -0.746730 0.418497
81.85820007 2.34510040 27.83769989 0.376562 -0.682415 0.626507
81.93560028 2.35759735 27.83510017 0.441389 -0.847156 0.295808
81.64859772 2.36329651 27.83919907 -0.848031 -0.529160 0.028863
81.64329529 2.38829803 27.83790016 -0.846372 -0.528103 -0.069005
81.95050049 2.39559937 27.83779907 0.397776 -0.774446 -0.491943
81.62020111 2.42819977 27.83740044 -0.849805 -0.453332 -0.268926
81.94560242 2.42559814 27.83650017 0.866499 -0.464987 -0.181566
81.60070038 2.43470001 27.83419991 -0.681335 -0.470406 0.560804
81.62979889 2.44850159 27.83119965 -0.836067 -0.541657 -0.087180
81.97650146 2.44779968 27.83740044 -0.283830 -0.778550 0.559732
81.60849762 2.45400238 27.83900070 -0.484061 -0.852727 -0.196322
82.03679657 2.45169830 27.83379936 0.579482 -0.768959 0.270004
82.08599854 2.45469666 27.83709908 0.817886 -0.513701 0.259178
81.57879639 2.46350098 27.83769989 -0.976890 -0.082122 0.197339
82.01919556 2.47019958 27.83550072 0.511971 -0.776839 0.366616
82.09310150 2.47699738 27.83589935 0.945338 -0.288064 0.152823
82.15509796 2.52480316 27.83679962 0.668247 -0.736104 -0.107687
81.62650299 2.53179932 27.83530045 -0.639218 0.768995 0.006903
82.16249847 2.54489899 27.83460045 0.870912 -0.353569 -0.341324
81.61260223 2.55370331 27.83399963 -0.912078 0.409850 0.011710
82.18270111 2.55780029 27.83860016 0.941631 -0.083202 -0.326203
81.67099762 2.57550049 27.83320045 -0.934802 0.190861 0.299527
82.15779877 2.57270050 27.83130074 0.887023 -0.157212 -0.434136
81.61849976 2.58719635 27.83370018 -0.995589 -0.088327 -0.031623
81.67350006 2.60690308 27.83790016 -0.896756 -0.087319 0.433825
81.59999847 2.63469696 27.83810043 -0.406078 -0.847940 0.340732
81.62229919 2.63700104 27.83620071 0.044599 -0.998811 -0.019707
82.16230011 2.64559937 27.83659935 0.941834 0.313049 0.122264
81.62110138 2.66120148 27.83499908 -0.130192 -0.965486 0.225581
82.09650421 2.66889954 27.83989906 0.300767 0.933077 0.197247
82.11579895 2.66500092 27.83589935 0.696056 0.710772 0.101539
81.56529999 2.67430115 27.83749962 -0.801963 -0.593253 0.070047
81.58580017 2.67199707 27.83959961 -0.371879 -0.809195 0.454873
82.03510284 2.67600250 27.83440018 -0.338586 0.737112 -0.584830
82.05680084 2.67910004 27.83049965 0.160996 0.852243 -0.497757
82.10790253 2.68440247 27.83079910 0.421941 0.863684 -0.275709
81.55110168 2.69480133 27.83819962 -0.907270 -0.345141 0.240288
82.04460144 2.69629669 27.83429909 -0.286742 0.777847 -0.559226
81.99670410 2.70529938 27.83699989 0.567302 0.818473 -0.090941
81.96070099 2.71630096 27.83659935 0.456162 0.885819 -0.085094
82.01729584 2.71679688 27.83589935 0.644536 0.737275 0.202480
81.51720428 2.72190094 27.83769989 -0.706226 -0.326325 0.628297
81.55490112 2.72219849 27.83889961 -0.902778 0.344964 -0.256888
81.87290192 2.73870087 27.83979988 0.783764 0.520906 0.338188
81.54650116 2.74289703 27.83860016 -0.718104 0.691991 -0.073987
81.58509827 2.74379730 27.83589935 -0.825851 0.552024 0.115066
81.92400360 2.74040222 27.83709908 0.615413 0.778535 -0.123083
81.97200012 2.74140167 27.83839989 0.076492 0.992111 -0.099325
81.56669617 2.76519775 27.83650017 -0.619334 0.046769 -0.783734
81.53520203 2.78669739 27.83709908 -0.987362 0.158382 -0.005616
81.64530182 2.78340149 27.83979988 -0.488605 -0.243537 0.837828
81.87729645 2.78759766 27.83130074 0.764788 0.626010 -0.152354
81.56210327 2.80030060 27.83209991 -0.643257 0.758072 0.107455
81.62639618 2.80919647 27.83749962 -0.378471 -0.201561 0.903401
81.77519989 2.80449677 27.83950043 0.786590 0.560504 0.259057
81.58530426 2.81980133 27.83609962 -0.082930 0.755099 0.650345
81.83090210 2.82700348 27.83959961 0.252789 0.777208 0.576233
81.74109650 2.83020020 27.83699989 0.447601 0.873043 0.193517
81.76609802 2.84490204 27.83799934 0.155859 0.221346 -0.962660
81.80559540 2.84989929 27.83020020 0.001079 0.993804 0.111142
81.61319733 2.87079620 27.83670044 -0.790494 0.396055 0.467183
81.67179871 2.87010193 27.83209991 0.070018 0.974108 0.214967
81.64009857 2.88079834 27.83679962 -0.351234 0.884868 0.306011
81.70079803 2.88040161 27.83620071 0.263156 0.817496 -0.512298
81.76789856 2.31729889 27.84849930 0.259891 -0.763922 0.590661
81.80159760 2.31860352 27.84670067 0.484985 -0.649443 0.585674
81.67379761 2.32369995 27.84679985 -0.865876 -0.433694 0.249336
81.72480011 2.32180023 27.84709930 -0.358655 -0.705845 0.610859
81.67700195 2.34470367 27.84059906 -0.942318 -0.231082 0.242152
81.80100250 2.35859680 27.84919930 0.400755 -0.720699 0.565675
81.86609650 2.36799622 27.84259987 0.363020 -0.927117 -0.093117
81.88649750 2.37509918 27.84560013 0.501457 -0.865181 -0.001337
81.91809845 2.37750244 27.84980011 0.045335 -0.939092 -0.340664
81.93759918 2.37680054 27.84189987 0.953258 0.235289 -0.189576
81.66059875 2.38529968 27.84910011 -0.888085 0.017309 0.459354
81.96279907 2.41539764 27.84569931 0.656395 -0.743117 -0.130083
82.05359650 2.43289948 27.84009933 0.158604 -0.874505 0.458351
82.10510254 2.43959808 27.84129906 -0.043401 -0.963511 -0.264128
82.04350281 2.46920013 27.84659958 0.351177 -0.847508 0.398001
82.06880188 2.48169708 27.84169960 0.720557 -0.375871 0.582682
81.57799530 2.49620056 27.84239960 -0.944696 -0.159035 0.286807
82.11599731 2.49870300 27.84079933 0.842288 -0.488923 -0.226946
81.60580444 2.50099945 27.84950066 -0.887468 0.355888 -0.292820
82.09449768 2.50640106 27.84560013 0.408390 -0.795796 -0.447131
82.06389618 2.51540375 27.84630013 0.768959 -0.579482 -0.270004
82.12535095 2.51660156 27.84315109 0.200287 -0.931403 -0.303931
82.17869568 2.52690125 27.84289932 0.795444 -0.576431 -0.187074
81.65730286 2.53739929 27.84749985 -0.607141 0.786490 0.113196
82.16010284 2.59329987 27.84410095 0.920237 0.311531 -0.236879
81.65710449 2.60839844 27.84970093 -0.631135 -0.673979 0.383954
82.17569733 2.60790253 27.84000015 0.905160 0.327149 -0.271401
82.14710236 2.62660217 27.84869957 0.858879 0.491413 -0.144362
82.13639832 2.64350128 27.84939957 0.759009 0.632256 0.155423
81.54260254 2.65979767 27.84149933 -0.148069 -0.973206 0.175911
82.13500214 2.66989899 27.84910011 0.679350 0.572524 0.459020
82.01010132 2.67459869 27.84239960 0.068550 0.860374 -0.505032
81.52559662 2.68820190 27.84510040 -0.814577 -0.543559 0.202502
82.12960052 2.68769836 27.84090042 0.119572 0.992776 -0.009873
82.10475159 2.69684982 27.84815025 0.202129 0.960442 -0.191560
82.08219910 2.71559906 27.84129906 0.096031 0.926499 -0.363837
81.89800262 2.73100281 27.84000015 0.275651 0.881181 0.384105
81.59140015 2.75990295 27.84869957 -0.884009 0.127103 -0.449859
81.87170410 2.76300049 27.84849930 0.970577 0.233086 0.060430
81.91310120 2.76319885 27.84280014 0.616239 0.666070 -0.420239
81.58329773 2.78189850 27.84650040 -0.913640 0.041107 -0.404441
81.66030121 2.80030060 27.84169960 -0.507298 -0.062888 -0.859473
81.71630096 2.80960083 27.84000015 0.824078 0.099932 -0.557592
81.87220001 2.80120087 27.84510040 0.711764 0.690873 -0.126834
81.79610443 2.82019806 27.84040070 0.179936 0.564001 -0.805932
81.61419678 2.83950043 27.84510040 -0.963835 0.114528 0.240637
81.63600159 2.83329773 27.84630013 -0.828458 -0.394429 0.397597
81.83630371 2.84829712 27.84339905 0.602723 0.797599 -0.023664
81.71360016 2.85659790 27.84250069 0.497525 0.688494 -0.527678
81.69290161 2.86489868 27.84930038 0.049048 0.921298 0.385752
81.72729492 2.87609863 27.84645081 -0.139877 0.875310 -0.462890
81.75734711 2.87945175 27.84389877 -0.128169 0.561293 -0.817632
81.66010284 2.88649750 27.84090042 0.187014 0.968605 -0.163799
81.63760376 2.89959717 27.84959984 -0.295671 0.874882 -0.383614
81.71109772 2.89779663 27.84609985 0.526981 0.490176 -0.694276
81.78949738 2.89199829 27.84860039 -0.230927 -0.244755 -0.941684
81.71710205 2.30410004 27.85829926 0.401713 -0.833358 0.379658
81.78530121 2.31430054 27.85860062 0.444851 -0.801374 0.399884
81.83550262 2.32849884 27.85680008 0.357010 -0.904910 0.231692
81.65679932 2.33910370 27.85350037 -0.901545 -0.428336 0.061191
81.77999878 2.33940125 27.85829926 0.745507 -0.422947 0.515107
81.88380432 2.35330200 27.85379982 0.590950 -0.799176 0.109978
81.95909882 2.35980225 27.85420036 0.933633 -0.112470 -0.340119
81.83769989 2.36419678 27.85440063 0.169722 -0.886328 0.430834
81.90290070 2.36789703 27.85880089 0.068727 -0.915009 -0.397537
82.00019836 2.39199829 27.85720062 0.958745 -0.023505 0.283294
81.63939667 2.40740204 27.85470009 -0.938417 -0.221049 -0.265537
81.92810059 2.40280151 27.85160065 0.676929 -0.719331 -0.155981
81.67400360 2.41999817 27.85280037 -0.781653 -0.377071 0.496827
81.62719727 2.43769836 27.85829926 -0.572964 -0.683214 -0.452692
81.98989868 2.43979645 27.85059929 0.525707 -0.814147 0.246570
82.00799561 2.44680023 27.85759926 0.475402 -0.877771 0.059253
82.08440399 2.45159912 27.85910034 0.464990 -0.736373 0.491467
81.60689545 2.47329712 27.85379982 -0.875281 -0.472396 -0.103558
82.09600067 2.49099731 27.85980034 0.675778 -0.662814 -0.322494
82.15579987 2.49579620 27.85009956 0.297559 -0.929343 -0.218586
81.56210327 2.51010132 27.85820007 -0.665132 -0.480838 0.571310
82.10929871 2.51490021 27.85659981 0.727977 -0.574202 -0.374622
82.09940338 2.53230286 27.85630035 0.459172 -0.518847 -0.721082
81.60050201 2.54280090 27.85510063 -0.777220 0.435048 -0.454601
81.62409973 2.54119873 27.85619926 -0.699745 0.590565 -0.401981
81.66880035 2.55670166 27.85630035 -0.757511 0.621746 -0.199020
82.15509796 2.55829620 27.85339928 0.863335 -0.004016 -0.504616
81.63929749 2.56390381 27.85309982 -0.727634 0.685896 -0.009739
82.15480042 2.60910034 27.85890007 0.882626 0.467915 -0.045018
81.62400055 2.61940002 27.85540009 -0.446815 -0.715900 0.536510
81.67639923 2.61720276 27.85479927 -0.940210 -0.223595 0.256926
81.58599854 2.63079834 27.85910034 -0.430763 -0.818609 0.379898
81.57810211 2.65070343 27.85779953 -0.509058 -0.727936 0.459313
81.59909821 2.65110016 27.85890007 -0.621334 -0.774823 -0.116592
81.64910126 2.66390228 27.85510063 -0.540551 -0.797509 0.267925
81.54335022 2.67535019 27.85429955 -0.968552 -0.201943 0.145347
81.56484985 2.67784882 27.85745049 -0.491229 -0.787576 0.372045
81.61199951 2.67929840 27.85269928 -0.175422 -0.981151 0.081057
82.04879761 2.68979645 27.85740089 -0.211117 0.935348 -0.283820
81.97309875 2.69129944 27.85090065 0.464851 0.873225 -0.146261
81.99345398 2.69660187 27.85795021 0.068870 0.979890 -0.187279
82.07610321 2.69170380 27.85250092 0.342112 0.930160 -0.133273
81.54759979 2.70950317 27.85799980 -0.895295 -0.218329 0.388303
82.03500366 2.70580292 27.85510063 0.014935 0.854025 -0.520018
82.14510345 2.70249939 27.85490036 0.427859 0.851084 0.304290
81.95030212 2.71589661 27.85650063 0.173656 0.882871 0.436328
82.05970001 2.71920013 27.85020065 0.051255 0.980995 -0.187140
82.12059784 2.71900177 27.85429955 0.207814 0.925974 -0.315255
81.99330139 2.72669983 27.85470009 0.588363 0.793010 -0.158000
81.92910004 2.73799896 27.85810089 0.545407 0.831854 -0.102716
81.94909668 2.73639679 27.85230064 0.207207 0.918854 -0.335817
81.88939667 2.74829865 27.85779953 0.588698 0.659141 0.467940
81.53490448 2.75000000 27.85750008 -0.967620 0.079066 0.239709
81.93415070 2.76729965 27.85585022 0.688494 0.527678 -0.497525
81.70349884 2.77559662 27.85230064 -0.628076 0.463938 0.624726
81.89430237 2.77030182 27.85059929 0.698751 0.569291 -0.433192
81.84999847 2.78959656 27.85409927 0.787188 0.572924 0.228238
81.89250183 2.79170227 27.85429955 0.210324 0.566493 -0.796775
81.53900146 2.80490112 27.85890007 -0.931759 0.337951 0.132718
81.56340027 2.80380249 27.85810089 -0.924466 0.381263 -0.001275
81.74330139 2.80449677 27.85230064 0.564031 0.768552 -0.301988
81.77539825 2.81909943 27.85530090 -0.293243 0.955242 -0.039015
81.86640167 2.81780243 27.85490036 0.706421 0.658797 -0.258757
81.56349945 2.82980347 27.85079956 -0.822653 0.558591 0.105915
81.74390411 2.82399750 27.85910034 0.381692 0.874395 -0.299575
81.71870422 2.83750153 27.85779953 0.852120 0.408210 -0.327500
81.78910065 2.83860016 27.85919952 -0.794902 0.465977 -0.388583
81.56400299 2.85569763 27.85969925 -0.704871 0.647068 0.290619
81.62159729 2.85389709 27.85799980 0.192554 0.747110 0.636199
81.79900360 2.85659790 27.85210037 -0.219260 -0.205808 -0.953713
81.67079926 2.86990356 27.85810089 -0.172254 0.757612 0.629565
81.59740448 2.87529755 27.85960007 0.202374 0.924130 0.324082
81.77619934 2.87180328 27.85880089 -0.342397 0.360822 -0.867509
81.72809601 2.89340210 27.85820007 -0.043967 0.912653 -0.406364
81.67759705 2.90750122 27.85880089 0.004065 0.835983 -0.548741
81.73660278 2.29409790 27.86750031 -0.046934 -0.669876 0.740988
81.76650238 2.30480194 27.86759949 0.506690 -0.722656 0.470142
81.66320038 2.31250000 27.86380005 -0.767531 -0.517637 0.378086
81.70610046 2.32330322 27.86899948 -0.162418 -0.528975 0.832950
81.75260162 2.32089996 27.86630058 -0.020975 -0.739714 0.672594
81.80500031 2.33180237 27.86849976 0.125235 -0.978325 0.164914
81.70940399 2.34790039 27.86779976 0.006898 -0.785005 0.619451
81.86000061 2.34420013 27.86179924 0.530452 -0.827986 -0.181826
81.62989807 2.36840057 27.86709976 -0.923181 -0.356778 -0.142989
81.68080139 2.38890076 27.86219978 -0.924592 0.226518 0.306298
81.94509888 2.38549805 27.86790085 0.888494 -0.283180 -0.361091
81.58390045 2.43499756 27.86009979 -0.662314 -0.709510 -0.240698
81.96160126 2.44699860 27.86540031 0.704931 -0.304879 -0.640407
82.03459930 2.44599915 27.86580086 0.149391 -0.982581 0.110525
82.05940247 2.44989777 27.86090088 0.559071 -0.799333 0.220240
81.98229980 2.45539856 27.86540031 0.510423 -0.694509 -0.507076
81.57469940 2.46610260 27.86770058 -0.961313 0.033405 0.273424
82.04750061 2.46849823 27.86669922 0.032940 -0.989321 0.141981
82.06590271 2.48619843 27.86560059 0.366299 -0.779394 -0.508301
81.59069824 2.51540375 27.86730003 -0.805022 0.545437 -0.233317
82.13359833 2.51390076 27.86479950 0.204250 -0.905365 -0.372286
82.15599823 2.52339935 27.86779976 0.578001 -0.713033 -0.396861
82.12989807 2.53639984 27.86450005 0.461685 -0.757426 -0.461685
82.19090271 2.53379822 27.86190033 0.874929 -0.348450 -0.336277
82.19440460 2.55619812 27.86370087 0.945509 -0.300905 0.124374
81.68099976 2.58950043 27.86809921 -0.978644 0.205480 -0.005805
82.19280243 2.58840179 27.86840057 0.875664 0.383957 -0.292900
81.65889740 2.62989807 27.86350060 -0.102511 -0.919863 -0.378606
82.14109802 2.63610077 27.86750031 0.762225 0.638859 0.104274
82.16640472 2.63549805 27.86070061 0.964990 0.181507 -0.189342
81.53289795 2.64330292 27.86459923 -0.888310 0.108399 -0.446267
81.63140106 2.64330292 27.86720085 -0.129096 -0.991235 -0.028064
82.11750031 2.64710236 27.86429977 0.585402 0.777947 -0.228260
81.67070007 2.65049744 27.86540031 -0.612827 -0.775445 0.152078
82.15049744 2.66230011 27.86930084 0.807098 0.359598 -0.468276
82.01010132 2.68540192 27.86520004 -0.102439 0.987886 -0.116568
82.11250305 2.68659973 27.86879921 0.864433 -0.402382 0.301404
81.59390259 2.69650269 27.86639977 -0.485786 -0.834317 0.260628
82.05799866 2.70880127 27.86930084 0.020825 0.994114 -0.106317
81.97250366 2.71829987 27.86059952 0.938671 0.341453 -0.048037
81.56320190 2.72779846 27.86090088 -0.836525 -0.171480 -0.520405
81.54550171 2.73329926 27.86969948 -0.949861 0.300985 0.084693
81.86879730 2.73410034 27.86879921 0.806665 0.591008 0.001365
81.91210175 2.74990082 27.86989975 0.608190 0.781532 -0.138972
81.97550201 2.74160004 27.86440086 0.435639 0.723856 -0.535024
81.56259918 2.75479889 27.86960030 -0.850808 0.291838 -0.436985
81.86479950 2.76830292 27.86739922 0.925796 0.283873 0.249637
81.55789948 2.77909851 27.86630058 -0.911718 0.242062 -0.331929
81.71730042 2.77269745 27.86840057 -0.507679 0.688634 0.517732
81.58010101 2.79440308 27.86829948 -0.725318 0.567426 -0.389797
81.76170349 2.80339813 27.86440086 0.361406 0.929519 -0.073348
81.87460327 2.80310059 27.86809921 0.771485 0.636234 -0.004140
81.58560181 2.81559753 27.86210060 -0.417602 0.905032 0.080782
81.61709595 2.81089783 27.86840057 -0.584945 0.793530 0.167775
81.79450226 2.81710052 27.86240005 -0.252564 0.959218 0.126936
81.83560181 2.81960297 27.86170006 0.358151 0.929584 -0.087190
81.89649963 2.81340027 27.86109924 0.623866 0.686417 -0.373661
81.82240295 2.83850098 27.86739922 0.020262 0.997083 -0.073582
81.64139557 2.84529877 27.86319923 -0.559078 0.723998 0.404053
81.66079712 2.84819794 27.86730003 -0.447507 0.878980 0.164718
81.73709869 2.85890198 27.86660004 -0.810182 0.321853 -0.489914
81.71360016 2.86399841 27.86240005 -0.060962 0.903596 0.424026
81.68969727 2.87729645 27.86720085 -0.322859 0.923065 -0.209076
81.65499878 2.88719940 27.86879921 -0.963029 -0.013392 0.269064
81.76059723 2.88339996 27.86750031 -0.146310 0.921057 -0.360898
81.69789886 2.91100311 27.86490059 0.321966 0.935758 -0.143857
81.68989563 2.29650116 27.87520027 -0.054824 -0.549642 -0.833600
81.67839813 2.32579803 27.87080002 -0.710387 -0.558043 0.428881
81.72840118 2.32920074 27.87010002 0.059696 -0.498391 0.864895
81.77549744 2.32969666 27.87639999 0.249026 -0.818228 0.518159
81.82990265 2.33360291 27.87969971 -0.064643 -0.992319 0.105469
81.76619720 2.34989929 27.87910080 0.086056 -0.657815 0.748247
81.65460205 2.35569763 27.87129974 -0.758479 -0.414461 0.502923
81.68029785 2.35430145 27.87050056 -0.695538 -0.475368 0.538750
81.79640198 2.35829926 27.87019920 0.334476 -0.816376 0.470803
81.81629944 2.35690308 27.87840080 -0.306239 -0.824491 -0.475849
81.94370270 2.35980225 27.87409973 0.002979 -0.999912 0.012908
81.87159729 2.36594772 27.87314987 0.279992 -0.956102 0.086449
81.64859772 2.37809753 27.87809944 -0.724556 -0.687399 0.050019
81.83899689 2.38079834 27.87829971 0.236395 -0.935787 -0.261573
81.97540283 2.39179993 27.87199974 0.891936 -0.449362 -0.050231
81.59639740 2.41349792 27.87540054 -0.133547 -0.694745 -0.706749
81.62660217 2.41269684 27.87859917 -0.834510 -0.481508 -0.267848
81.98429871 2.41889954 27.87479973 0.910529 -0.410474 0.049471
81.61039734 2.44730377 27.87310028 -0.826496 -0.547572 0.130654
82.01599884 2.46399689 27.87949944 0.288863 -0.938459 -0.189350
82.06289673 2.46309662 27.87879944 0.310919 -0.921295 -0.233548
82.10030365 2.47869873 27.87989998 0.509220 -0.821872 -0.255384
81.59519958 2.48989868 27.87660027 -0.897817 -0.367088 0.243251
82.02529907 2.48290253 27.87039948 0.427218 -0.764409 -0.482871
82.13150024 2.49490356 27.87490082 0.422669 -0.771901 -0.474890
82.11309814 2.50330353 27.87369919 0.881545 -0.450120 -0.142370
82.17440033 2.51869965 27.87700081 0.727432 -0.625112 0.282979
81.63610077 2.54090118 27.87630081 -0.288696 0.757628 -0.585367
82.16939545 2.54519653 27.87870026 0.937541 -0.287512 0.195842
81.56410217 2.55899811 27.87669945 -0.922634 0.062755 0.380537
81.65910339 2.56620026 27.87719917 -0.217178 0.453827 -0.864219
82.17300415 2.56749725 27.87039948 0.849797 0.521756 -0.074941
82.14749908 2.58329773 27.87509918 0.945712 0.245693 0.212751
81.63700104 2.59719849 27.87770081 -0.931640 -0.217804 0.290874
81.69409943 2.61930084 27.87689972 -0.954504 -0.280737 0.100543
82.16410065 2.61299896 27.87989998 0.908280 0.408108 -0.092065
81.62159729 2.62889862 27.87730026 -0.662194 -0.739574 0.120534
82.17890167 2.65679932 27.87859917 0.613922 -0.613922 0.496184
82.09199524 2.66300201 27.87190056 0.718114 0.695890 0.006945
82.12870026 2.66570282 27.87789917 0.638360 0.743465 -0.199391
81.52709961 2.67299652 27.87719917 0.311672 -0.683095 0.660486
81.61669922 2.67559814 27.87779999 -0.662540 -0.744083 0.085912
81.55069733 2.68800354 27.87420082 -0.848617 0.463299 0.255350
81.97809601 2.68170166 27.87500000 0.081699 0.986306 -0.143269
81.94609833 2.69460297 27.87770081 0.518031 0.235189 0.822393
82.01570129 2.70450211 27.87504959 -0.134043 0.980111 -0.146340
82.08769989 2.71240234 27.87339973 0.119634 0.973441 0.195192
81.92939758 2.72239685 27.87960052 0.812840 0.543424 0.209716
81.96119690 2.72679901 27.87940025 0.006249 0.943547 -0.331179
82.01470184 2.72650146 27.87879944 0.519222 0.774790 -0.360706
81.93209839 2.75559998 27.87199974 0.733011 0.593852 -0.331716
81.53910065 2.76010132 27.87439919 -0.997353 0.022353 -0.069187
81.76779938 2.77899933 27.87470055 -0.515225 0.800580 0.305964
81.89590454 2.77529907 27.87849998 0.797168 0.596787 0.091478
81.54209900 2.78340149 27.87820053 -0.953360 0.269169 0.136573
81.92089844 2.79000092 27.87450027 0.637449 0.373904 -0.673687
81.76219940 2.81939697 27.87919998 0.209041 0.953496 -0.217133
81.85980225 2.82450104 27.87479973 0.300094 0.838086 -0.455583
81.55200195 2.83110046 27.87479973 -0.845457 0.532735 0.037361
81.84030151 2.84760284 27.87140083 0.383390 0.907880 -0.169604
81.70770264 2.88999939 27.87210083 0.164671 0.934059 -0.316888
81.73999786 2.88220215 27.87339973 -0.003539 0.973179 -0.230024
81.74670410 2.91249847 27.87120056 0.289513 0.925585 -0.243875
81.85390472 2.32759857 27.88590050 0.334290 -0.931335 -0.144446
81.66680145 2.34950256 27.88649940 -0.399513 -0.434812 0.807049
81.72340393 2.34639740 27.88389969 0.009594 -0.812769 0.582507
81.84580231 2.34970093 27.88759995 0.674684 -0.463741 -0.574235
81.88749695 2.34549713 27.88990021 0.342731 -0.929090 -0.139019
81.90830231 2.35749817 27.88489914 -0.084858 -0.995158 -0.049593
81.96569824 2.35489655 27.88129997 -0.005908 -0.972510 -0.232788
81.69280243 2.36830139 27.88249969 -0.276265 -0.507266 0.816308
81.74710083 2.36499786 27.88279915 0.067201 -0.802121 0.593369
81.72619629 2.37550354 27.88559914 0.012405 -0.806343 0.591318
81.78109741 2.37490082 27.88400078 0.076383 -0.881881 0.465244
81.67859650 2.38310242 27.88820076 -0.687163 -0.427605 0.587333
81.89440155 2.38310242 27.88459969 0.379122 -0.908461 0.175970
81.95040131 2.38089752 27.88899994 0.517315 -0.477393 0.710268
81.94760132 2.40390015 27.88570023 0.246465 -0.964150 -0.098331
81.97465515 2.40515137 27.88734818 0.771547 -0.622887 -0.129334
81.67880249 2.41999817 27.88579941 -0.724590 -0.625419 -0.289516
81.64029694 2.43209839 27.88249969 -0.538373 -0.809874 -0.232935
82.00489807 2.44049835 27.88769913 0.359790 -0.904572 -0.228692
82.03639984 2.44869995 27.88780022 0.227594 -0.908926 -0.349364
82.15539551 2.48899841 27.88719940 0.620524 -0.756699 -0.205810
81.59539795 2.51750183 27.88929939 -0.986263 -0.038156 -0.160716
82.13539886 2.52600098 27.88859940 0.536308 -0.839501 0.087239
81.60240173 2.53610229 27.88310051 -0.459677 0.812785 -0.357880
81.62490082 2.57530212 27.88089943 -0.478340 0.397265 -0.783180
81.66960144 2.58139801 27.88809967 -0.728445 0.378137 -0.571297
82.13159943 2.58409882 27.88899994 0.974990 -0.221535 -0.017770
81.60680389 2.64089966 27.88610077 -0.455931 -0.669701 0.586197
82.15859985 2.64040375 27.88660049 0.920038 0.389399 -0.043560
82.11060333 2.65599823 27.88209915 0.539684 0.832196 -0.127243
81.57060242 2.66049957 27.88260078 -0.686627 -0.683470 0.247817
81.59840393 2.66519928 27.88179970 -0.549153 -0.764949 0.336578
82.15840149 2.67590332 27.88719940 0.906089 -0.033263 -0.421777
82.03310394 2.68840027 27.88129997 0.048718 0.925639 -0.375259
82.08709717 2.68730164 27.88669968 0.597482 0.773484 -0.211512
81.57289886 2.69039917 27.88240051 -0.893536 -0.417176 0.166004
81.99960327 2.69439697 27.88199997 0.670274 0.038261 -0.741127
81.55740356 2.70549774 27.88409996 -0.993577 -0.075390 0.084392
82.07429504 2.70650101 27.88735008 0.394081 0.897224 -0.199222
82.11180115 2.70069885 27.88969994 0.342219 0.922441 0.178855
82.03949738 2.71739960 27.88299942 0.162615 0.974431 -0.155052
82.14220428 2.71060181 27.88680077 0.358563 0.855274 0.374085
81.52010345 2.73970032 27.88050079 -0.376999 -0.540202 -0.752366
81.56410217 2.74890137 27.88870049 -0.989066 -0.099492 0.108856
81.89009857 2.75270081 27.88870049 0.536652 0.825271 -0.175877
81.97809601 2.75420380 27.88129997 0.435464 0.889489 -0.138492
81.95690155 2.76329803 27.88699913 0.607366 0.792279 -0.058319
81.73130035 2.77120209 27.88349915 -0.318017 0.913393 0.254124
81.83750153 2.79620361 27.88290024 0.278419 0.739798 -0.612521
81.54280090 2.80650330 27.88800049 -0.830768 0.075524 -0.551471
81.58470154 2.80950165 27.88319969 -0.163135 0.977564 0.133248
81.79930115 2.80039978 27.88769913 -0.131320 0.988966 -0.068565
81.86530304 2.80744934 27.88599968 0.925037 0.370284 0.084829
81.74200439 2.82319641 27.88409996 0.784723 0.592732 -0.181324
81.57499695 2.83409882 27.88789940 -0.619463 0.758494 0.202368
81.59690094 2.83139801 27.87999916 -0.268750 0.787390 0.554788
81.63520050 2.83450317 27.88330078 -0.578988 0.746717 0.327394
81.72119904 2.83350372 27.88080025 0.477986 0.757222 -0.445135
81.68140411 2.84380341 27.88249969 -0.039434 0.947691 0.316745
81.85729980 2.84329987 27.88660049 0.262050 0.719447 -0.643215
81.60580444 2.85369873 27.88489914 -0.057337 0.918733 0.390695
81.68740082 2.86430359 27.88629913 -0.367798 0.929243 -0.035090
81.71789551 2.86470032 27.88549995 -0.328720 0.720594 -0.610481
81.74200439 2.86229706 27.88859940 0.797947 -0.186948 -0.573002
81.72705078 2.90435028 27.88259888 0.151930 0.979515 -0.132167
81.66979980 2.92539978 27.88649940 -0.284882 0.957556 0.043925
81.78039551 2.32949829 27.89839935 -0.311692 -0.679907 0.663758
81.68460083 2.33840179 27.89570045 -0.168215 -0.613758 0.771365
81.92679596 2.35649872 27.89710045 0.180064 -0.949057 0.258588
81.76139832 2.36849976 27.89990044 -0.026123 -0.842807 0.537582
81.63649750 2.37660217 27.89399910 -0.547461 -0.814367 0.192597
81.65900421 2.37670135 27.89719963 -0.134615 -0.864145 0.484905
81.86419678 2.37100220 27.89450073 0.464415 -0.830317 -0.308046
81.62200165 2.39569855 27.89170074 -0.728552 -0.661065 -0.179454
81.61239624 2.41809845 27.89739990 -0.749027 -0.567837 -0.341349
81.58419800 2.45120239 27.89889908 -0.849406 -0.526218 0.040053
81.59819794 2.46829987 27.89380074 -0.760893 -0.635815 0.129545
82.07475281 2.47504807 27.89579964 0.580470 -0.811518 0.067032
82.12260437 2.47170258 27.89710045 0.094464 -0.940650 -0.325968
82.08930206 2.49790192 27.89360046 0.132712 -0.982556 0.130277
82.16629791 2.50540161 27.89209938 0.813639 -0.578745 -0.055186
81.57430267 2.53379822 27.89900017 -0.896050 -0.393210 -0.206106
81.58730316 2.55979919 27.89380074 -0.924975 0.202560 -0.321546
82.18489838 2.57669830 27.89539909 0.967324 -0.068826 0.244021
82.14780426 2.60880280 27.89990044 0.988226 -0.123381 -0.090480
81.62159729 2.61019897 27.89949989 -0.635360 -0.471072 -0.611890
81.66670227 2.61759949 27.89870071 -0.901826 0.143440 -0.407597
82.18569946 2.61270142 27.89109993 0.849818 0.460892 -0.255711
81.68059540 2.63110352 27.89170074 -0.831883 -0.496670 -0.247566
81.61750031 2.67990112 27.89870071 -0.520652 -0.847674 0.101836
81.63780212 2.67040253 27.89699936 -0.681465 -0.671845 0.290224
82.11270142 2.67880249 27.89389992 0.431963 0.608750 -0.665456
82.17400360 2.68119812 27.89929962 0.157891 -0.948696 0.273948
82.05889893 2.69069672 27.89139938 0.232790 0.969750 -0.073447
81.51039886 2.70659637 27.89979935 -0.831128 0.026188 -0.555464
81.98300171 2.71479797 27.89570045 0.803878 0.539547 -0.250337
82.01449585 2.71949768 27.89889908 0.215734 0.815504 -0.537040
81.54859924 2.72850037 27.89480019 -0.960835 0.139877 -0.239228
81.94049835 2.73870087 27.89620018 0.077091 0.985581 -0.150624
81.87609863 2.74040222 27.89920044 0.606611 0.653401 -0.452869
81.99079895 2.74349976 27.89450073 0.443255 0.885075 0.142014
81.49909973 2.75039673 27.89859962 -0.768692 -0.325771 0.550441
81.74390411 2.76999664 27.89959908 -0.346924 0.936041 0.058912
81.55339813 2.77300262 27.89340019 -0.987776 -0.003364 -0.155847
81.86589813 2.77770233 27.89430046 0.846664 0.527222 -0.072087
81.93599701 2.78679657 27.89570045 0.159430 0.960533 0.227945
81.57174683 2.79544830 27.89775085 -0.818670 0.559056 0.131282
81.75890350 2.79489899 27.89249992 -0.727246 0.250829 0.638904
81.60150146 2.80370331 27.89640045 -0.119769 0.991227 0.055892
81.62280273 2.80190277 27.89949989 -0.491753 0.818540 0.296937
81.51480103 2.81500244 27.89970016 -0.892212 -0.448149 0.055848
81.84740448 2.81230164 27.89979935 0.853085 0.495292 -0.164112
81.56130219 2.82199860 27.89990044 -0.151190 0.888423 0.433412
81.61809540 2.82969666 27.89419937 -0.441836 0.791421 0.422415
81.82140350 2.82520294 27.89349937 -0.143553 0.827282 -0.543135
81.65370178 2.83709717 27.89830017 -0.481282 0.865145 -0.141040
81.76439667 2.83280182 27.89609909 0.762683 0.622629 -0.175067
81.83740234 2.83910370 27.89949989 0.365892 0.788198 -0.494840
81.65104675 2.86550140 27.89255142 -0.869590 0.437048 -0.229788
81.76139832 2.87840271 27.89660072 -0.650101 0.758215 -0.049789
81.68309784 2.88780212 27.89900017 0.192427 0.822740 0.534856
81.70110321 2.88369751 27.89119911 0.070148 0.973463 0.217829
81.74240112 2.88520050 27.89606667 -0.007430 0.996627 -0.081726
81.70510101 2.90529633 27.89699936 0.521376 0.685668 -0.507964
81.75920105 2.90419769 27.89629936 -0.101367 0.931228 -0.350055
81.80049896 2.32579803 27.90159988 0.127217 -0.931557 0.340613
81.91010284 2.33989716 27.90209961 0.520711 -0.845611 0.117486
81.76570129 2.34870148 27.90209961 -0.048603 -0.517966 0.854019
81.83280182 2.34410095 27.90660095 0.101928 -0.895011 0.434241
81.70230103 2.35340118 27.90570068 -0.386998 -0.584613 0.713064
81.72540283 2.35630035 27.90679932 -0.095485 -0.950930 -0.294304
81.80339813 2.35849762 27.90530014 -0.435908 -0.799433 0.413389
81.78129578 2.36710358 27.90900040 -0.290754 -0.695560 0.657007
81.91549683 2.37789917 27.90979958 0.361468 -0.486777 0.795229
81.78150177 2.38729858 27.90480042 0.286964 -0.642864 0.710196
81.88819885 2.38179779 27.90859985 0.577758 -0.725062 0.374806
81.94139862 2.38009644 27.90690041 0.840670 -0.336581 0.424249
81.96779633 2.39459991 27.90990067 -0.311307 -0.942008 -0.125332
81.59379578 2.40640259 27.90640068 -0.842409 -0.532720 0.080974
81.64929962 2.40499878 27.90180016 -0.484069 -0.811014 0.328532
81.67800140 2.40080261 27.90900040 -0.273989 -0.834350 0.478320
81.92179871 2.40910339 27.90250015 0.224890 -0.786340 0.575408
82.02290344 2.41780090 27.90200043 0.213787 -0.916845 -0.337181
81.98249817 2.43840027 27.90760040 0.709072 -0.703366 -0.049935
81.61239624 2.44789886 27.90209961 -0.942172 -0.281143 -0.182400
82.00019836 2.44969940 27.90959930 0.660142 -0.747194 0.076896
82.02050018 2.44950104 27.90769958 0.227688 -0.967994 -0.105576
82.05100250 2.45939636 27.90180016 0.514815 -0.857119 -0.017659
81.61740112 2.47360229 27.90789986 -0.944992 -0.293367 0.144655
81.58509827 2.49810028 27.90640068 -0.965527 -0.241063 -0.098211
82.11270142 2.49279785 27.90279961 0.558837 -0.818350 0.134180
82.16529846 2.53109741 27.90579987 0.909766 -0.290600 0.296441
82.15339661 2.55909729 27.90539932 0.783695 0.061382 0.618106
82.17959595 2.55329895 27.90859985 0.875205 -0.115647 0.469726
81.57019806 2.56809998 27.90959930 -0.991998 0.112237 -0.057819
81.58139801 2.58219910 27.90049934 -0.799171 -0.312995 0.513185
81.62190247 2.62830353 27.90830040 -0.653904 0.689425 0.311614
81.57699585 2.65419769 27.90780067 -0.841874 -0.266260 -0.469418
81.62989807 2.65480042 27.90909958 -0.647445 -0.566724 0.509547
82.12660217 2.65709686 27.90719986 0.612935 0.790035 -0.012452
82.15180206 2.65290070 27.90539932 0.995928 -0.033668 0.083628
82.09590149 2.67549896 27.90880013 0.500743 0.738720 -0.451164
82.14270020 2.67449951 27.90819931 0.753226 0.597823 0.274333
81.54570007 2.69950104 27.90309906 -0.449086 -0.772427 0.449086
81.99169922 2.69200134 27.90299988 0.009156 0.903860 -0.427731
82.07759857 2.69110107 27.90660095 0.207676 0.955312 0.210356
81.57849884 2.70020294 27.90530014 -0.409462 -0.906368 -0.104101
82.01959991 2.70030212 27.90509987 0.099984 0.939854 -0.326616
82.05190277 2.70909882 27.90819931 0.063723 0.996886 -0.046442
81.52670288 2.71820068 27.90480042 -0.410231 -0.432754 -0.802767
82.04460144 2.72810364 27.90500069 0.036715 0.950792 -0.307646
81.55470276 2.74680328 27.90670013 -0.706045 0.681326 -0.193120
81.53230286 2.75969696 27.90539932 -0.746410 0.639123 -0.185453
81.90589905 2.75589752 27.90579987 -0.111503 0.953675 -0.279412
81.94010162 2.76349640 27.90690041 0.211521 0.948432 0.236084
81.54149628 2.79429626 27.90530014 -0.971404 -0.010727 -0.237189
81.77320099 2.80770111 27.90139961 0.408299 0.699233 -0.586827
81.88109589 2.80410004 27.90110016 0.945428 0.274215 0.175989
81.63659668 2.82859802 27.90830040 -0.756253 0.627399 -0.185612
81.79049683 2.82710266 27.90830040 -0.135529 0.499856 -0.855439
81.86429596 2.82299805 27.90080070 0.337636 0.654068 -0.676903
81.74829865 2.83940125 27.90990067 0.610605 0.383480 -0.692896
81.89049530 2.83029938 27.90189934 0.895936 -0.249445 0.367526
81.64229584 2.85119629 27.90710068 -0.754059 0.628126 -0.191970
81.82409668 2.85440063 27.90130043 -0.131956 0.918138 -0.373645
81.78690338 2.86990356 27.90990067 -0.483113 0.042426 -0.874530
81.88459778 2.86560059 27.90049934 0.148017 0.581604 -0.799892
81.72019958 2.87599945 27.90539932 0.028857 0.997167 -0.069470
81.65119934 2.89129639 27.90379906 -0.946668 0.322190 -0.003732
81.72550201 2.90309906 27.90909958 -0.294985 0.937580 -0.184192
81.66139984 2.91429901 27.90360069 -0.747327 0.664444 -0.004144
81.71769714 2.92649841 27.90279961 0.256506 0.965887 0.035592
81.72499847 2.32530212 27.91209984 -0.794739 -0.603545 0.064207
81.86199951 2.32610321 27.91600037 0.115100 -0.882434 0.456138
81.87809753 2.33989716 27.91489983 0.006945 -0.698706 0.715375
81.74290466 2.34739685 27.91900063 0.525947 -0.850029 0.028838
81.85464478 2.34689713 27.91469955 0.206513 -0.921474 0.328996
81.98180389 2.35030365 27.91950035 0.877525 -0.412512 -0.244507
81.86650085 2.36930084 27.91860008 0.608688 -0.700566 0.372432
81.96509552 2.37280273 27.91309929 0.541856 -0.582369 -0.606001
81.69760132 2.38490295 27.91329956 -0.270818 -0.764943 0.584397
81.73059845 2.38349915 27.91850090 -0.158280 -0.785370 0.598449
81.76249695 2.38369751 27.91970062 0.351274 -0.833292 0.426885
81.62270355 2.39649963 27.91370010 -0.487713 -0.839356 0.240035
81.79380035 2.40709686 27.91570091 -0.164350 -0.592565 0.788579
81.93659973 2.40440369 27.91559982 -0.442477 -0.896771 0.003939
81.98110199 2.41269684 27.91379929 0.707059 -0.704179 -0.064802
81.62460327 2.42510223 27.91939926 -0.753866 -0.552835 0.355047
82.05909729 2.44100189 27.91300011 0.580861 -0.775003 -0.248940
82.07720184 2.45729828 27.91600037 0.699775 -0.705693 -0.110958
82.03739929 2.46399689 27.91869926 0.415635 -0.803989 -0.425264
82.09709930 2.46880341 27.91600037 0.045424 -0.968634 -0.244307
82.12500000 2.47350311 27.91710091 0.270259 -0.910116 -0.314085
82.06269836 2.48010254 27.91469955 0.735580 -0.675591 -0.049991
82.05090332 2.49859619 27.91139984 0.482333 -0.423472 0.766828
