63.35219955 21.86540222 31.17959976 -0.881890 0.352453 0.313124
63.60290146 21.86280060 31.17919922 0.722984 0.318631 -0.613000
63.56370163 21.87210083 31.17390060 0.336336 0.936648 0.097819
63.48789978 21.89430237 31.17420006 0.040924 0.920141 0.389443
63.56389999 21.89600372 31.17869949 0.970363 0.220251 -0.099428
63.53219986 21.90299988 31.17440033 0.809879 0.584522 -0.049297
63.48070145 21.92240143 31.17880058 -0.245169 0.854283 -0.458359
63.39080048 21.93509674 31.17709923 -0.519504 0.845468 -0.123691
63.45249939 21.93879700 31.17250061 -0.114490 0.991870 0.055545
63.49734879 21.93540192 31.17530060 0.120571 0.970910 -0.206874
63.29660034 20.81960297 31.18009949 -0.063489 -0.994665 0.081311
63.22760010 20.82910156 31.18659973 -0.017907 -0.972931 0.230400
63.33860016 20.82630157 31.18429947 0.177386 -0.875202 0.450062
63.36849976 20.82759857 31.18849945 0.360865 -0.914287 0.183998
63.20550156 20.83039856 31.18540001 -0.553309 -0.776547 -0.301370
63.12289810 20.85009766 31.18269920 -0.274993 -0.946898 -0.166622
63.27270126 20.85900116 31.18250084 0.148779 -0.976443 -0.156281
63.20169830 20.86239624 31.18810081 -0.337448 -0.941033 -0.024194
63.46530151 20.86550140 31.18169975 0.773223 -0.608512 0.178436
63.04970169 20.90550232 31.18759918 -0.805482 -0.512293 -0.297918
63.47480011 20.91200256 31.18630028 0.552027 0.160073 0.818317
63.51079941 20.91699982 31.18350029 0.507674 -0.588632 0.629111
63.59220123 20.91210175 31.18600082 0.029337 -0.789313 0.613289
63.05569839 20.92590332 31.18650055 -0.334214 0.860947 -0.383499
63.54029846 20.93949890 31.18939972 0.403104 -0.913969 -0.046563
63.84930038 20.93479919 31.18440056 0.033802 -0.995518 0.088321
63.87590027 20.93399811 31.18659973 0.589702 -0.806442 -0.043629
63.73410034 20.95739746 31.18250084 -0.444895 -0.876575 0.183537
63.95360184 20.96450043 31.18580055 0.847508 -0.351177 -0.398001
63.04150009 21.01879883 31.18540001 -0.660506 0.603653 -0.446469
63.95420074 21.02230072 31.18320084 0.697466 -0.665691 -0.265323
63.07600021 21.03730011 31.18645096 -0.575177 0.659022 -0.484624
63.10440063 21.05419922 31.18849945 -0.389362 0.845962 -0.364342
63.06969833 21.07129669 31.18910027 -0.546645 0.250740 -0.798942
63.96920013 21.07399750 31.18280029 0.870564 -0.483960 -0.088891
63.11764908 21.09284973 31.18465042 -0.584958 0.356841 -0.728346
63.14989853 21.09619904 31.18729973 -0.605407 0.742782 -0.285931
63.96379852 21.09559631 31.18950081 0.761477 -0.249639 -0.598191
63.09429932 21.10350037 31.18490028 -0.563851 0.093735 -0.820540
63.93939972 21.10600281 31.18420029 0.864769 -0.285206 -0.413320
63.99750137 21.11710358 31.18950081 0.984549 0.123820 0.123820
63.96929932 21.12979889 31.18420029 0.974432 0.087909 -0.206773
63.15729904 21.13300323 31.18499947 -0.906814 0.167082 -0.387003
63.95040131 21.14630127 31.18889999 0.714362 0.603203 -0.354729
63.98939896 21.15209961 31.18110085 0.767121 0.622438 -0.155233
63.18389893 21.16760254 31.18079948 -0.816854 -0.001364 -0.576843
63.95230103 21.17130280 31.18860054 0.854119 -0.057127 -0.516930
63.22779846 21.18109894 31.18490028 -0.704443 -0.429296 -0.565212
63.69689941 21.18869781 31.18980026 0.084527 0.929798 0.358234
63.74819946 21.18820190 31.18919945 -0.409073 0.882109 0.233543
63.93239975 21.18579865 31.18740082 0.679560 0.733025 -0.029546
63.53499985 21.19339752 31.18479919 0.657290 0.529530 -0.536254
63.96279907 21.19210052 31.18250084 0.653936 0.695711 -0.297244
63.76990128 21.20439911 31.18409920 -0.542400 0.699279 0.465630
63.20589828 21.21489716 31.18239975 -0.581311 0.085105 -0.809219
63.83369827 21.22019958 31.18680000 -0.025356 0.895470 0.444399
63.93489838 21.23960114 31.18980026 0.874906 0.435225 0.212413
63.48130035 21.24699783 31.18835068 0.745004 0.626303 0.229593
63.77780151 21.24970245 31.18370056 -0.666450 -0.518723 -0.535510
63.83229828 21.24420166 31.18409920 -0.273794 0.929196 -0.248258
63.22470093 21.25420380 31.18910027 -0.894818 0.311176 0.320110
63.61380005 21.26480103 31.18350029 -0.675460 0.336916 -0.655928
63.84140015 21.26529694 31.18099976 -0.365364 0.922371 0.125464
63.91540146 21.26270294 31.18449974 0.592765 0.666235 0.452505
63.26530075 21.28359985 31.18510056 -0.380965 0.910634 0.160034
63.73469925 21.28749847 31.18610001 0.435551 0.878485 0.196367
63.29079819 21.29750061 31.18610001 -0.122541 0.986277 0.110644
63.31510162 21.29769897 31.18899918 -0.225462 0.431513 -0.873478
63.34780121 21.29090118 31.18020058 -0.148935 0.988796 -0.010078
63.40219879 21.29810333 31.18530083 0.294985 0.930120 0.218769
63.25199890 21.31189728 31.18969917 -0.631715 0.520533 -0.574440
63.32529831 21.31590271 31.18009949 -0.513109 -0.301550 -0.803608
63.35100174 21.31089783 31.18239975 -0.354456 0.919327 -0.170873
63.73649979 21.31819916 31.18169975 0.319278 0.898434 0.301458
63.76319885 21.32109833 31.18490028 0.340398 0.935759 0.092108
63.68849945 21.33399963 31.18429947 0.484710 0.868498 -0.103765
63.37179947 21.44760132 31.18910027 -0.675541 0.514618 -0.528028
63.45289993 21.44699860 31.18059921 0.011160 -0.951075 0.308758
63.40560150 21.46900177 31.18210030 -0.436446 -0.417120 0.797199
63.45209885 21.49279785 31.18210030 0.926351 0.307838 0.217047
63.40550232 21.50820160 31.18490028 -0.243673 0.292123 0.924818
63.42350006 21.53029633 31.18250084 -0.123448 0.638063 0.760024
63.48379898 21.69799805 31.18320084 -0.097660 -0.993440 0.059494
63.51419830 21.70429993 31.18330002 0.305163 -0.909650 0.281802
63.54209900 21.71260071 31.18540001 0.627131 -0.679803 0.380229
63.38510132 21.74310303 31.18910027 -0.909249 -0.388870 0.148478
63.58909988 21.77100372 31.18210030 0.674957 -0.551019 -0.490725
63.58290100 21.79550171 31.18280029 0.826481 -0.530338 -0.188867
63.33950043 21.80529785 31.18919945 0.274150 -0.809916 0.518534
63.36980057 21.82109833 31.18919945 -0.913509 0.351350 -0.205073
63.59870148 21.82469940 31.18959999 0.911679 -0.218167 -0.348201
63.61949921 21.84970093 31.18650055 0.853599 -0.129421 -0.504598
63.37860107 21.87419891 31.18969917 -0.841323 0.534871 -0.078032
63.48460007 21.87059784 31.18650055 0.293380 0.947123 0.129945
63.45389938 21.89520264 31.18409920 0.158080 0.781369 0.603716
63.37839890 21.90239716 31.18440056 -0.922002 0.385802 0.032695
63.40520096 21.90280151 31.18079948 -0.738014 0.667587 0.098304
63.42119980 21.91899872 31.18449974 0.057141 0.993813 0.095236
63.57709885 21.91629791 31.18350029 0.732494 0.648869 -0.205966
63.43130112 21.93849945 31.18239975 -0.017907 0.972931 -0.230400
63.51100159 21.93250275 31.18989944 0.693304 0.570272 -0.440589
63.28329849 20.82920074 31.19989967 -0.321118 -0.851660 -0.414195
63.31819916 20.82289886 31.19219971 -0.186750 -0.971862 -0.143556
63.17549896 20.83280182 31.19919968 -0.391913 -0.742832 -0.542775
63.15689850 20.84709930 31.19989967 -0.111599 -0.888557 -0.444985
63.40629959 20.84459686 31.19160080 0.046045 -0.924837 0.377565
63.42900085 20.84259796 31.19470024 0.997641 0.054533 -0.041702
63.25690079 20.85389709 31.19949913 0.102164 -0.994753 0.005377
63.09189987 20.86730194 31.19529915 -0.470050 -0.882186 -0.028284
63.35969925 20.86009979 31.19409943 -0.490375 -0.250568 0.834714
63.41189957 20.86370087 31.19440079 0.118224 -0.933559 0.338364
63.16210175 20.87049866 31.19470024 0.001135 -0.984392 -0.175987
63.49980164 20.88770294 31.19869995 0.854839 -0.434326 0.283923
63.87760162 20.91269684 31.19680023 0.040092 -0.937633 -0.345308
63.03606796 20.92426872 31.19726563 -0.776482 -0.494420 0.390673
63.78540039 20.93450165 31.19400024 -0.304359 -0.937868 0.166640
63.93130112 20.93630219 31.19689941 0.136607 -0.942723 -0.304322
63.89569855 20.94560242 31.19860077 0.247134 -0.914829 -0.319395
63.03680038 20.95549774 31.19899940 -0.695510 -0.643630 0.319383
63.76190186 20.95269775 31.19169998 -0.688048 -0.706355 0.166291
63.87939835 20.96009827 31.19840050 0.370970 -0.928075 -0.032541
63.90919876 20.96360016 31.19249916 0.485730 -0.789109 -0.375997
63.03310013 20.97810364 31.19680023 -0.879834 0.475190 -0.009317
63.67800140 20.97640228 31.19890022 -0.314767 -0.933209 0.173330
63.06779861 21.01670074 31.19160080 -0.681121 0.563975 -0.466911
63.98460007 21.03309631 31.19829941 0.862764 -0.020316 -0.505198
63.13140106 21.07869720 31.19840050 -0.608420 0.750648 -0.257591
63.16350174 21.08609772 31.19849968 -0.377752 0.776580 -0.504209
63.99399948 21.08170319 31.19379997 0.925561 -0.378228 -0.016781
63.16949844 21.10649872 31.19729996 -0.884721 0.289900 -0.365004
63.17919922 21.13760376 31.19709969 -0.945977 0.029126 -0.322924
63.98929977 21.13559723 31.19420052 0.884399 0.462205 0.064847
63.16339874 21.17369843 31.19260025 -0.790835 0.207306 0.575851
63.19950104 21.17680359 31.19890022 -0.253459 -0.533353 -0.807027
63.16740036 21.19529724 31.19840050 -0.653101 0.691803 -0.308006
63.92770004 21.20429993 31.19709969 0.493940 0.720121 0.487287
63.17610168 21.21510315 31.19919968 -0.895865 0.215535 -0.388550
63.50510025 21.21319962 31.19300079 0.724152 0.635026 0.268971
63.80329895 21.21150208 31.19029999 -0.405967 0.911050 0.071961
63.95009995 21.21379852 31.19120026 0.804816 0.592802 0.029291
63.22259903 21.22219849 31.19949913 -0.866889 0.438721 -0.236699
63.77420044 21.22380066 31.19099998 -0.504550 0.494559 0.707702
63.91870117 21.22579956 31.19090080 0.864149 0.456786 0.211170
63.18280029 21.24179840 31.19400024 -0.786315 0.579309 -0.214731
63.44240189 21.26300049 31.19589996 0.502893 0.864221 0.014831
63.22914886 21.27819824 31.19739914 -0.804727 0.556412 -0.206930
63.48630142 21.27169800 31.19960022 0.675708 0.737010 0.015325
63.43080139 21.28250122 31.19820023 0.405702 0.896588 0.177585
63.46189880 21.28209686 31.19540024 0.649240 0.721553 0.240518
63.87009811 21.28730011 31.19490051 -0.373856 0.676893 0.634072
63.90050125 21.28420258 31.19210052 0.122535 0.418310 0.900001
63.23400116 21.30290222 31.19370079 -0.643439 0.439544 -0.626727
63.71350098 21.30970001 31.19370079 0.616405 0.787399 -0.006895
63.37480164 21.31089783 31.19849968 0.539055 0.742225 -0.398147
63.39599991 21.31849670 31.19659996 0.838653 0.478571 -0.260059
63.34000015 21.32080078 31.19919968 -0.442870 0.320807 -0.837227
63.36349869 21.32859802 31.19729996 0.138400 0.947304 -0.288894
63.23059845 21.33049774 31.19739914 -0.991423 0.014433 -0.129895
63.31150055 21.33580017 31.19790077 -0.658602 -0.001381 -0.752490
63.41199875 21.33809662 31.19750023 0.487530 0.409265 -0.771244
63.33520126 21.34140015 31.19689941 0.729921 0.478339 -0.488269
63.32180023 21.36609650 31.19759941 0.034686 0.992469 -0.117485
63.42259979 21.39589691 31.19689941 -0.952768 0.139527 0.269752
63.42380142 21.44049835 31.19750023 -0.730331 -0.682852 -0.018154
63.48199844 21.45149994 31.19470024 0.807948 -0.391975 -0.439972
63.46860123 21.48560333 31.19230080 0.659939 0.672975 0.334043
63.38990021 21.49359894 31.19569969 -0.392527 0.476524 0.786669
63.47570038 21.71440125 31.19700050 -0.343456 -0.428144 0.835901
63.54339981 21.73850250 31.19519997 0.707745 -0.701932 0.079930
63.56430054 21.77079773 31.19099998 0.670288 -0.735107 -0.101648
63.60110092 21.79309845 31.19499969 0.901730 -0.362158 0.236063
63.36230087 21.85320282 31.19879913 -0.944596 0.318359 0.079917
63.58689880 21.86465073 31.19509888 0.641799 0.765927 0.038085
63.45880127 21.87609863 31.19630051 0.404652 0.798019 0.446568
63.53430176 21.87740326 31.19569969 0.359529 0.412908 -0.836807
63.57600021 21.88259888 31.19090080 0.436557 0.475798 -0.763566
63.42359924 21.89189911 31.19599915 0.282322 0.728933 0.623660
63.51219940 21.89540100 31.19930077 0.121185 0.538763 -0.833696
63.60300064 21.89980316 31.19490051 0.678474 0.507599 -0.531052
63.43870163 21.91220093 31.19580078 -0.035277 0.374986 0.926359
63.53269958 21.93199921 31.19210052 0.351356 0.917509 -0.186347
63.55820084 21.93289948 31.19219971 0.726777 0.679793 -0.098372
63.46519852 21.94120026 31.19059944 -0.101770 0.947648 -0.302666
63.48379898 21.94719696 31.19659996 0.271048 0.806878 -0.524862
63.51179886 21.95549774 31.19169998 0.397597 0.828458 -0.394429
63.46220016 21.97380066 31.19820023 -0.175458 0.746076 -0.642327
63.33869934 20.81479645 31.20540047 0.329218 -0.936171 0.123287
63.34619904 20.83850098 31.20019913 0.527188 -0.560874 -0.638352
63.12919998 20.84970093 31.20870018 -0.053150 -0.967819 -0.245972
63.20259857 20.84790039 31.20919991 -0.394649 -0.908676 0.136231
63.45000076 20.85610199 31.20470047 0.568771 -0.822468 0.006820
63.45459747 20.87679672 31.20655060 0.157780 -0.937074 0.311443
63.47560120 20.88670349 31.20859909 0.831724 -0.548279 -0.087324
63.51620102 20.91970062 31.20949936 0.591349 -0.431435 0.681301
63.56909943 20.93910217 31.20260048 -0.405957 -0.644560 0.647874
63.84389877 20.93399811 31.20439911 -0.183342 -0.961555 0.204446
63.00859833 20.94589996 31.20000076 -0.900400 0.072635 -0.428958
63.05899811 20.94480133 31.20129967 -0.346435 0.889333 -0.298444
63.93489838 20.96230316 31.20569992 0.360865 -0.914287 0.183998
63.96089935 20.97540283 31.20870018 0.529116 -0.847960 0.031610
63.94010162 20.98580170 31.20350075 0.534252 -0.814464 -0.226326
63.03990173 20.99909973 31.20359993 -0.864927 0.357954 -0.351809
63.96289825 21.00029755 31.20450020 0.936571 -0.266595 -0.227513
63.03990173 21.03820038 31.20120049 -0.699550 0.315040 -0.641389
63.06280136 21.03379822 31.20339966 -0.886085 0.414293 -0.207883
63.08429718 21.05410004 31.20730019 -0.505784 0.862651 -0.004025
63.97630310 21.05274963 31.20400047 0.926145 -0.101998 -0.363114
63.99950027 21.05809784 31.20910072 0.915037 0.162642 -0.369126
63.05039978 21.06629944 31.20800018 -0.821877 0.476154 -0.312722
63.96149826 21.06939697 31.20579910 0.898023 0.214649 -0.384032
63.10940170 21.07420349 31.20229912 -0.845095 -0.379590 -0.376466
63.14189911 21.10690308 31.20610046 0.060983 0.571538 -0.818306
63.97710037 21.10079956 31.20750046 0.983996 -0.178186 0.001135
63.09859848 21.11350250 31.20179939 -0.507512 0.581700 -0.635655
63.95930099 21.15360260 31.20599937 0.795994 0.598808 -0.088444
63.73799896 21.16889954 31.20829964 -0.447035 0.737360 0.506419
63.93610001 21.17070007 31.20849991 0.761569 0.537483 -0.362111
63.97829819 21.17140198 31.20280075 0.842245 0.537986 0.034575
63.51750183 21.18730164 31.20770073 0.389262 0.573217 0.721039
63.96419907 21.18979645 31.20649910 0.818399 0.570744 0.066895
63.57870102 21.20980072 31.20599937 0.000000 0.000000 0.000000
63.91429901 21.21610260 31.20890045 0.704238 0.531092 0.471157
63.88309860 21.24829865 31.20339966 -0.006406 0.923701 0.383061
63.83829880 21.25530243 31.20199966 -0.519949 0.839917 -0.155540
63.86029816 21.25050354 31.20719910 -0.193525 0.806100 0.559241
63.25090027 21.27829742 31.20409966 -0.788769 0.611902 -0.058480
63.33929825 21.28369904 31.20919991 0.658170 0.621512 -0.424894
63.39469910 21.28330231 31.20289993 0.506518 0.822511 0.258680
63.27569962 21.29879761 31.20299911 -0.321632 0.776077 -0.542454
63.43989944 21.29799652 31.20910072 0.629358 0.694746 0.348190
63.72129822 21.29350281 31.20960045 0.751998 0.240200 0.613844
63.32929993 21.30319977 31.20800018 0.698956 0.701962 -0.136785
63.76509857 21.30595016 31.20705032 -0.531839 0.391107 0.751121
63.29570007 21.32330322 31.20089912 0.610820 0.644289 0.460207
63.38330078 21.33660126 31.20929909 0.671289 0.730827 0.123541
63.66170120 21.33139801 31.20509911 -0.195321 0.885552 -0.421482
63.69250107 21.33329773 31.20829964 0.209743 0.951284 -0.225981
63.71200180 21.33619690 31.20439911 0.468315 0.729777 0.498102
63.38470078 21.36229706 31.20000076 -0.076803 0.248036 -0.965702
63.41740036 21.36309814 31.20719910 -0.316874 0.026511 -0.948097
63.42800140 21.41719818 31.20579910 -0.619365 0.595738 -0.511355
63.46340179 21.41369629 31.20700073 0.401483 -0.897178 -0.184074
63.36479950 21.46350098 31.20739937 -0.885976 0.463577 0.011955
63.46030045 21.46510315 31.20149994 0.839305 0.332909 -0.429812
63.48870087 21.47260284 31.20759964 0.986127 0.149627 0.071868
63.47600174 21.50360107 31.20719910 0.700163 0.703149 0.123909
63.43849945 21.51049805 31.20289993 -0.178483 0.168211 0.969458
63.45959854 21.52760315 31.20980072 0.493225 0.826190 -0.272285
63.49769974 21.70600128 31.20520020 0.076884 -0.703562 0.706463
63.50510025 21.72969818 31.20899963 0.264216 -0.745183 0.612284
63.57870102 21.75749969 31.20219994 0.580444 -0.797545 -0.164334
63.37639999 21.76979828 31.20579910 -0.940206 -0.264476 0.214627
63.61159897 21.82489777 31.20770073 0.979152 -0.191967 -0.066404
63.34740067 21.83200073 31.20989990 -0.798273 -0.284985 0.530607
63.38150024 21.85849762 31.20590019 -0.640892 0.576971 0.506322
63.56790161 21.85630035 31.20709991 0.587873 0.798145 -0.131790
63.60469818 21.85250092 31.20739937 0.692557 0.542364 -0.475611
63.36690140 21.87760162 31.20759964 -0.923627 0.295504 0.244112
63.38779831 21.88030243 31.20770073 -0.717668 0.681559 0.142932
63.41239929 21.90869904 31.20879936 -0.872502 0.356030 -0.334638
63.54650116 21.90670013 31.20739937 0.016374 0.331260 -0.943398
63.57360077 21.90499878 31.20960045 0.842507 0.533824 -0.072215
63.41930008 21.92759705 31.20840073 -0.942721 0.330531 -0.045014
63.52119827 21.92019653 31.20809937 0.751201 0.623668 0.216184
63.39469910 21.93090057 31.20520020 -0.753865 0.647645 0.110646
63.45130157 21.93499756 31.20649910 -0.324008 0.874670 -0.360516
63.49860001 21.96510315 31.20949936 0.431630 0.729306 -0.530856
63.24760056 20.82569885 31.21969986 -0.076819 -0.996481 -0.033541
63.21030045 20.83039856 31.21750069 -0.216457 -0.965633 0.143873
63.27030182 20.83660126 31.21780014 -0.385385 -0.823106 -0.417104
63.41790009 20.83570099 31.21069908 0.997858 0.065416 -0.001038
63.15079880 20.85299683 31.21980095 0.084753 -0.984802 -0.151600
63.22710037 20.85050201 31.21529961 -0.285664 -0.951775 -0.111896
63.37829971 20.85320282 31.21629906 0.348832 -0.914427 -0.205280
63.08710098 20.86920166 31.21629906 -0.241252 -0.968719 -0.058148
63.12279892 20.86710358 31.21750069 -0.458474 -0.884896 -0.082219
63.17100143 20.86219788 31.21489906 0.061928 -0.987336 -0.146056
63.05229950 20.87909698 31.21089935 -0.660607 -0.749069 -0.049938
63.48809814 20.91729736 31.21730042 0.648929 -0.703407 0.290015
63.76929855 20.92819977 31.21899986 -0.186284 -0.816319 -0.546737
63.79589844 20.92729950 31.21419907 -0.387629 -0.905422 -0.173074
63.81919861 20.92790222 31.21629906 0.209259 -0.962066 -0.175041
63.88439941 20.92440033 31.21680069 0.891934 -0.451931 -0.014578
63.07809830 20.94699860 31.21489906 -0.602613 0.691767 -0.397890
63.86370087 20.94560242 31.21940041 0.058530 -0.990417 0.125093
63.93199921 20.94640350 31.21879959 0.454390 -0.884864 -0.102695
63.04830170 20.95600128 31.21710014 -0.887078 -0.455302 0.076114
63.77199936 20.95359802 31.21879959 0.255519 -0.896530 0.361861
63.91030121 20.95629883 31.21759987 0.255524 -0.950442 0.177109
63.70019913 20.96579742 31.21120071 -0.393340 0.390181 0.832492
63.72900009 20.97840118 31.21820068 0.053059 -0.992317 0.111763
63.65579987 20.98149872 31.21570015 0.000000 0.000000 0.000000
63.01539993 21.01689911 31.21929932 -0.742529 0.419833 -0.521911
63.96110153 21.02539825 31.21419907 0.868776 -0.435141 -0.236391
63.99259949 21.03369904 31.21730042 0.851285 -0.490495 -0.186358
63.09049988 21.07769775 31.21209908 -0.422019 0.829813 -0.365118
63.99919891 21.08650208 31.21380043 0.998605 -0.052558 0.005153
63.06859970 21.10649872 31.21570015 -0.344149 0.922881 -0.172777
63.99739838 21.11730194 31.21349907 0.973886 -0.182682 0.134807
63.12739944 21.12969971 31.21279907 -0.425664 0.901969 -0.072541
63.16009903 21.12680054 31.21109962 -0.537512 0.487277 -0.688216
63.97290039 21.13150024 31.21820068 0.851714 0.509287 -0.123332
63.99300003 21.13710022 31.21730042 0.956001 0.289200 0.049252
63.16410065 21.14839935 31.21290016 -0.748922 0.578200 -0.323728
63.18320084 21.15480042 31.21699905 -0.876480 0.329629 -0.350896
63.15980148 21.16819763 31.21559906 -0.811212 0.058045 -0.581864
63.76060104 21.17990112 31.21229935 -0.500743 0.738720 0.451164
63.53910065 21.18689728 31.21080017 0.415224 -0.560801 0.716304
63.18349838 21.19989777 31.21540070 -0.713005 0.618804 -0.329704
63.78319931 21.19509888 31.21689987 -0.708564 0.664573 0.237235
63.90019989 21.19539642 31.21910095 0.543612 0.647958 0.533514
63.50389862 21.20130157 31.21850014 0.536029 0.081044 0.840300
63.19129944 21.21910095 31.21730042 -0.469534 0.767288 -0.436814
63.53250122 21.21600342 31.21549988 0.861851 0.500748 -0.080402
63.85699844 21.21289825 31.21859932 -0.767741 0.277020 0.577784
63.22359848 21.22429657 31.21949959 -0.728693 0.441181 -0.523800
63.80229950 21.22429657 31.21409988 -0.275533 0.931160 0.238795
63.47525024 21.23225021 31.21349907 0.688494 0.497525 0.527678
63.50439835 21.23950195 31.21010017 0.799605 0.567215 0.197226
63.89749908 21.23870087 31.21360016 0.516730 0.641284 0.567225
63.18339920 21.24839783 31.21389961 -0.636789 0.682625 -0.358501
63.21419907 21.24819946 31.21310043 -0.828845 0.538230 0.152721
63.80950165 21.24659729 31.21100044 -0.618690 0.783674 0.055469
63.45410156 21.25150299 31.21960068 0.709835 0.704256 -0.012551
63.23419952 21.26540375 31.21610069 -0.724352 0.546152 -0.420751
63.43840027 21.26869965 31.21839905 0.499367 0.806913 0.315473
63.47129822 21.26360321 31.21960068 0.628377 0.773499 0.082719
63.36750031 21.28510284 31.21769905 -0.340441 0.922439 0.182228
63.41849899 21.28330231 31.21910095 0.513076 0.857862 0.028732
63.20700073 21.29309845 31.21459961 -0.564566 0.279911 -0.776476
63.23699951 21.29450226 31.21780014 -0.864221 0.014831 -0.502893
63.40570068 21.30709839 31.21479988 0.786761 0.506809 0.352353
63.28870010 21.31150055 31.21769905 -0.493509 0.716169 -0.493509
63.70750046 21.31529999 31.21430016 0.819998 0.570494 0.046256
63.24369812 21.33280182 31.21529961 -0.281528 0.892252 -0.353028
63.27529907 21.33300018 31.21069908 -0.492254 0.856669 -0.154289
63.29240036 21.34519958 31.21859932 -0.754698 0.539535 -0.373274
63.35110092 21.35179901 31.21489906 0.287065 0.940860 0.179931
63.32160187 21.36270142 31.21859932 0.195116 0.954051 -0.227411
63.40430069 21.38919830 31.21489906 -0.609449 0.481851 -0.629596
63.48350143 21.43609619 31.21389961 0.806145 -0.427914 -0.408682
63.45719910 21.44200134 31.21769905 0.404097 -0.710881 -0.575633
63.50690079 21.45709991 31.21980095 0.958460 -0.036145 -0.282926
63.41830063 21.47519684 31.21010017 -0.841726 0.174304 0.510995
63.53590012 21.73169708 31.21719933 0.088520 -0.782173 0.616741
63.38589859 21.75109863 31.21500015 -0.940206 -0.264476 0.214627
63.56439972 21.78179932 31.21579933 0.852260 -0.520283 -0.054400
63.59320068 21.78119659 31.21699905 0.919342 -0.351638 -0.176525
63.57089996 21.80500031 31.21859932 0.965730 0.124735 0.227609
63.36569977 21.81999969 31.21220016 -0.844794 -0.090054 0.527460
63.56539917 21.83229828 31.21730042 0.956064 -0.041459 -0.290211
63.58530045 21.84010315 31.21039963 0.999496 0.031329 -0.005053
63.58250046 21.86689758 31.21710014 0.548741 0.004065 -0.835983
63.55189896 21.87629700 31.21069908 0.849275 0.510149 -0.135942
63.62950134 21.87310028 31.21030045 0.915955 0.339720 -0.213580
63.46720123 21.88480377 31.21529961 -0.374022 0.563483 -0.736611
63.59840012 21.88289642 31.21100044 -0.545292 0.297288 -0.783758
63.38069916 21.90080261 31.21839905 -0.895865 0.388550 0.215535
63.47809982 21.91899872 31.21489906 -0.478523 0.708614 0.518539
63.49959946 21.92070007 31.21400070 0.632558 0.774362 -0.015293
63.56850052 21.92790222 31.21540070 0.424730 0.806186 -0.411908
63.47510147 21.94789886 31.21559906 0.320622 0.527990 -0.786402
63.49810028 21.94349670 31.21170044 0.209768 0.976089 -0.056989
63.53639984 21.94660187 31.20999908 0.408451 0.849515 -0.333904
63.41640091 21.95079803 31.21910095 -0.444782 0.885274 -0.135866
63.32989883 20.80829620 31.22739983 -0.120205 -0.991970 0.039319
63.17139816 20.81510162 31.22139931 -0.728934 -0.683816 -0.032428
63.43270111 20.81449890 31.22299957 0.842729 0.478719 0.246242
63.29779816 20.82330322 31.22010040 -0.346778 -0.937202 -0.037385
63.35210037 20.82360077 31.22540092 0.389901 -0.920272 -0.032820
63.37799835 20.82579803 31.22260094 0.215897 -0.974585 -0.059768
63.12770081 20.84079742 31.22680092 -0.191785 -0.971624 -0.138441
63.43270111 20.84410095 31.22369957 0.993700 0.088703 -0.068492
63.19269943 20.85610199 31.22909927 -0.098711 -0.854062 0.510720
63.40579987 20.86029816 31.22839928 0.217012 -0.975961 -0.020160
63.42750168 20.87280273 31.22039986 0.814220 -0.454115 0.361698
63.48899841 20.87300110 31.22680092 0.129016 -0.969537 -0.208214
63.06850052 20.88719940 31.22299957 -0.591427 -0.795980 0.128958
63.04800034 20.92870331 31.22640038 -0.841462 -0.349434 -0.412113
63.73870087 20.92780304 31.22780037 -0.018366 -0.275483 0.961130
63.86489868 20.92150116 31.22270012 -0.379970 -0.924977 0.006397
63.71200180 20.93800354 31.22850037 -0.548109 -0.179683 0.816879
63.90230179 20.93710327 31.22279930 0.266334 -0.963467 -0.028229
63.79240036 20.94770050 31.22690010 -0.680882 -0.621531 0.387427
63.83620071 20.94589996 31.22019958 0.151245 -0.988208 0.023881
63.00239944 20.95179749 31.22389984 -0.962851 0.220789 0.155467
63.02920151 20.96179962 31.22990036 -0.839134 0.168423 -0.517193
63.96730042 20.96910095 31.22780037 0.721457 -0.590580 -0.361546
63.01319885 20.97760010 31.22369957 -0.790010 0.061429 -0.610008
63.04399872 20.97589874 31.22290039 -0.944766 -0.264644 -0.193341
63.92390060 20.97219849 31.22150040 0.465237 -0.807370 -0.362917
63.03739929 20.99549866 31.22559929 -0.958257 0.036231 -0.283604
63.97779846 20.99349976 31.22369957 0.939752 -0.206220 -0.272653
63.04850006 21.03579712 31.22629929 -0.892357 0.404555 0.200087
63.13539886 21.06629944 31.22579956 -0.994631 -0.099792 0.027415
63.05960083 21.08899689 31.22179985 0.372418 0.810368 -0.452336
63.97499847 21.08540344 31.22069931 0.948322 0.063221 -0.310947
63.98939896 21.09819794 31.22859955 0.996206 0.035850 -0.079305
63.12620163 21.10549927 31.22710037 -0.854844 -0.192452 0.481875
63.09379959 21.11910248 31.22570038 -0.186010 0.941072 0.282459
63.13650131 21.15820313 31.22559929 -0.637794 0.230358 -0.734952
63.96810150 21.15579987 31.22789955 0.596206 0.720347 0.354456
63.96910095 21.17649841 31.22069931 0.881099 0.467607 0.070765
63.92380142 21.18800354 31.22529984 0.688018 0.717610 0.108011
63.48059845 21.20439911 31.22730064 0.689277 0.290814 0.663570
63.83330154 21.20729828 31.22050095 0.128526 0.940272 0.315228
63.94189835 21.20429993 31.22620010 0.688317 0.632729 0.354786
63.87469864 21.22789764 31.22260094 0.318324 0.498866 0.806104
63.84410095 21.24990082 31.22410011 -0.004121 0.787121 0.616784
63.20119858 21.27059937 31.22780037 -0.444045 0.275031 -0.852750
63.18730164 21.28990173 31.22960091 -0.643458 0.758309 0.104544
63.44570160 21.28890228 31.22820091 0.657576 0.752917 -0.026640
63.25749969 21.30879974 31.22279930 -0.341291 0.658087 -0.671150
63.34540176 21.31980133 31.22820091 -0.632735 0.757157 -0.162356
63.38470078 21.31400299 31.22450066 0.903639 0.427199 0.030609
63.40060043 21.34660339 31.22030067 0.861974 0.140997 0.486950
63.41730118 21.40599823 31.22279930 0.205606 -0.942476 0.263562
63.47565079 21.42244720 31.22750092 0.683240 -0.634086 -0.362101
63.41139984 21.45800018 31.22719955 -0.910894 -0.304603 -0.278369
63.47579956 21.45379639 31.22170067 0.723840 -0.624332 -0.293709
63.48669815 21.47750092 31.22750092 0.592085 0.762605 0.260517
63.44369888 21.48560333 31.22010040 -0.311219 0.925131 -0.217427
63.42929840 21.50260162 31.22690010 -0.765887 0.406622 0.498072
63.44020081 21.53569794 31.22960091 -0.618912 0.777683 -0.110258
63.54719925 21.75669861 31.21999931 0.846340 -0.474256 0.242465
63.57929993 21.75830078 31.22820091 0.296652 -0.901762 -0.314362
63.38000107 21.79010010 31.22459984 -0.736867 -0.169342 0.654485
63.59429932 21.80930328 31.22069931 0.944110 -0.319080 0.082725
63.62129974 21.81710052 31.22879982 0.951885 -0.292988 -0.089850
63.38410187 21.82839966 31.22920036 -0.843917 -0.048822 0.534248
63.39149857 21.85489655 31.22830009 -0.806145 0.408682 0.427914
63.40779877 21.87310028 31.22789955 -0.719764 0.674113 0.165865
63.61190033 21.88220215 31.22610092 0.992054 0.074204 -0.101603
63.42860031 21.89399719 31.22800064 -0.508754 0.676660 -0.532261
63.55759811 21.91159821 31.22450066 0.717120 0.304575 -0.626876
63.59700012 21.91300201 31.22369957 0.732798 0.628338 -0.261148
63.40940094 21.92269897 31.22640038 -0.693797 0.705836 0.142973
63.51449966 21.92330170 31.22710037 -0.188668 0.940587 -0.282314
63.54529953 21.93830109 31.22809982 0.263052 0.921400 -0.286051
63.51459885 21.95300293 31.22570038 0.433168 0.711989 -0.552663
63.43659973 21.96369934 31.22010040 -0.416329 0.788920 -0.451968
63.48239899 21.96810150 31.22340012 0.268551 0.848620 -0.455769
63.19559860 20.81060028 31.23259926 0.015003 -0.544208 0.838816
63.26639938 20.81300354 31.23500061 -0.032092 -0.810666 -0.584628
63.22740173 20.82019806 31.23069954 -0.009212 -0.898819 0.438224
63.31629944 20.82589722 31.23719978 0.052158 -0.952841 0.298955
63.16809845 20.83699799 31.23810005 -0.308483 -0.895644 0.320405
63.40190125 20.83290100 31.23259926 0.159679 -0.825256 0.541714
63.24869919 20.84439850 31.23360062 0.143630 -0.949033 -0.280549
63.36629868 20.84230042 31.23830032 0.153212 -0.962488 0.223926
63.10469818 20.85469818 31.23749924 -0.385946 -0.886632 -0.254814
63.27999878 20.85489655 31.23859978 -0.274289 -0.832164 0.481942
63.10789871 20.87930298 31.23830032 -0.082877 -0.760429 -0.644111
63.18190002 20.87300110 31.23579979 -0.593776 0.245971 0.766112
63.46670151 20.88379669 31.23850060 0.862507 -0.448625 0.234131
63.05690002 20.89420319 31.23780060 -0.731655 -0.633680 -0.251259
63.48289871 20.90119934 31.23049927 0.909733 -0.014399 0.414943
63.80160141 20.91100311 31.23539925 -0.147746 -0.954360 -0.259554
63.00669861 20.93569946 31.23509979 -0.898250 -0.391620 -0.199449
63.75450134 20.93090057 31.23990059 0.668929 -0.694352 0.265347
63.71989822 20.95729828 31.23240089 -0.950019 -0.151842 0.272778
63.87360001 20.95809937 31.23539925 0.200579 -0.966661 0.159169
63.79909897 20.96520233 31.23780060 0.021191 -0.953576 0.300407
63.94060135 20.97010040 31.23970032 0.556804 -0.819698 -0.134401
62.99240112 20.99539948 31.23940086 -0.971624 0.138441 -0.191785
63.95740128 20.99960327 31.23349953 0.923573 -0.378731 -0.059800
63.03900146 21.01909637 31.23640060 -0.874184 0.478486 -0.082788
63.07210159 21.04270172 31.23380089 -0.706133 0.604555 -0.368631
64.00029755 21.04949951 31.23320007 0.933412 -0.185013 -0.307428
63.05360031 21.06870270 31.23299980 -0.722640 0.136716 -0.677569
63.09379959 21.06710052 31.23130035 -0.361289 0.769561 -0.526542
63.11349869 21.08080292 31.23719978 -0.342426 0.731916 -0.589103
63.07389832 21.11129761 31.23570061 -0.375083 0.923591 -0.079319
64.00749969 21.11820221 31.23850060 0.984003 0.084890 -0.156627
63.15359879 21.12770081 31.23100090 -0.867978 0.495008 -0.039765
64.00490570 21.15200043 31.23119926 0.603503 0.492552 -0.627038
63.17150116 21.16280365 31.23380089 -0.824966 0.140200 -0.547518
63.95259857 21.17449951 31.23559952 0.654134 0.657429 0.374026
63.17359924 21.18560028 31.23550034 -0.916242 0.088493 -0.390730
63.49340057 21.18060303 31.23060036 0.572270 0.779228 0.255562
63.13740158 21.19210052 31.23119926 -0.613055 0.449351 -0.649805
63.79589844 21.19909668 31.23240089 0.386271 0.324714 0.863339
63.15670013 21.20089722 31.23730087 -0.917337 0.111736 -0.382109
63.84920120 21.20469666 31.23660088 -0.662495 0.669006 0.336945
63.17070007 21.21810150 31.23620033 -0.845199 0.210166 -0.491395
63.20449829 21.21800232 31.23439980 -0.649472 0.599126 -0.468224
63.50149918 21.22740173 31.23620033 0.357511 -0.391857 0.847723
63.81650162 21.23359680 31.23509979 0.181874 0.192342 0.964327
63.46234894 21.24689865 31.23820114 0.725351 0.619202 0.300755
63.49140167 21.24700165 31.23290062 0.482026 0.791554 0.375625
63.51190186 21.24459839 31.23110008 0.666125 0.166150 0.727098
63.87639999 21.24569702 31.23839951 0.378197 0.796629 0.471540
63.21459961 21.25330353 31.23810005 -0.597035 0.640762 -0.482673
63.23979950 21.27519989 31.23900032 -0.660070 0.727769 -0.186173
63.39270020 21.29199982 31.23480034 0.642171 0.635499 -0.428670
63.28509903 21.30290222 31.23979950 -0.322454 0.908999 -0.264091
63.22040176 21.31860352 31.23950005 -0.473696 0.773215 -0.421606
63.41230011 21.31159973 31.23769951 0.580640 0.371282 0.724573
63.27999878 21.32569885 31.23279953 -0.414855 0.907239 0.069369
63.31679916 21.32550049 31.23900032 0.001379 0.765161 -0.643838
63.24580002 21.33830261 31.23740005 -0.623672 0.717142 -0.311030
63.36700058 21.33609772 31.23620033 -0.286765 0.937876 -0.195333
63.34709930 21.34130096 31.23900032 0.377727 0.921980 0.085293
63.27930069 21.35839844 31.23340034 -0.294036 0.711793 -0.637882
63.30250168 21.35540009 31.23259926 -0.618307 0.777680 -0.113627
63.41429901 21.42199707 31.23559952 -0.914043 -0.202323 0.351555
63.50249863 21.43789673 31.23299980 0.779023 -0.307467 -0.546431
63.38399887 21.47499847 31.23489952 -0.096224 0.992801 0.071319
63.46319962 21.52200317 31.23690033 0.548680 0.491631 0.676202
63.54679871 21.71630096 31.23040009 0.985237 -0.101756 -0.137670
63.55279922 21.76650238 31.23990059 0.458908 -0.886120 0.064771
63.62229919 21.83799744 31.23760033 0.885022 -0.434518 -0.167122
63.59149933 21.85279846 31.23929977 0.520263 -0.281351 -0.806330
63.62409973 21.85929871 31.23740005 0.758206 0.650899 -0.038122
63.35869980 21.86080170 31.23069954 -0.737938 0.487006 0.467196
63.56660080 21.88430023 31.23279953 0.782530 0.471462 -0.406657
63.59420013 21.88770294 31.23590088 0.803483 0.346632 -0.484006
63.39260101 21.89330292 31.23959923 -0.926464 0.268974 -0.263281
63.44060135 21.92389679 31.23760033 -0.334449 0.920802 0.200669
63.59400177 21.93260193 31.23550034 0.712500 0.460052 -0.529808
63.43220139 21.94460297 31.23629951 -0.454158 0.828171 -0.328440
63.49789810 21.94010162 31.23579979 0.877525 0.412512 -0.244507
63.57529831 21.94329834 31.23920059 0.357449 0.716530 -0.599012
63.46429825 21.96859741 31.23830032 -0.391281 0.895403 0.212493
63.53219986 21.96440125 31.23670006 0.903055 0.426629 -0.049796
63.51509857 21.98560333 31.23940086 0.120634 0.916541 -0.381314
63.28739929 20.81359863 31.24810028 0.001038 -0.997858 -0.065416
63.27650070 20.83150101 31.24639893 -0.209692 -0.974012 0.085614
63.12549973 20.84429932 31.24780083 -0.535186 -0.835590 -0.123953
63.14889908 20.84860229 31.24489975 0.370075 -0.928434 -0.032463
63.20740128 20.84790039 31.24729919 -0.610975 -0.785956 0.094781
63.39070129 20.84500122 31.24850082 0.410070 -0.910220 0.057813
63.42229843 20.84380341 31.24869919 0.621150 -0.486483 0.614416
63.07529831 20.85970306 31.24029922 -0.512857 -0.782951 -0.352087
63.43970108 20.85369873 31.24469948 0.341722 -0.904903 0.253725
63.41650009 20.86969757 31.24340057 0.691558 -0.504017 0.517412
63.48659897 20.86940002 31.24880028 0.736439 0.430001 0.522262
63.06570053 20.87860107 31.24799919 -0.689027 -0.715699 -0.114097
63.02180099 20.90280151 31.24749947 -0.685279 -0.669230 -0.287271
63.04130173 20.90930176 31.24959946 -0.583900 -0.466786 -0.664208
63.87580109 20.90630341 31.24589920 -0.279381 -0.960142 0.008540
63.49000168 20.92729950 31.24720001 0.693443 -0.634704 0.341011
63.82009888 20.92289734 31.24440002 0.205272 -0.963601 -0.171278
63.84889984 20.93170166 31.24049950 0.107948 -0.968996 -0.222247
63.02040100 20.94580078 31.24900055 -0.884833 -0.179299 -0.430026
63.04150009 20.94259644 31.24119949 -0.543424 -0.209716 -0.812840
63.83720016 20.94809723 31.24320030 0.309385 -0.946588 0.090841
63.90990067 20.94940186 31.24570084 0.247838 -0.968154 -0.035405
63.94179916 20.94960022 31.24790001 0.556533 -0.778511 -0.290158
63.00500107 20.96440125 31.24480057 -0.963409 -0.018316 -0.267410
63.03450012 20.97769928 31.24239922 -0.854415 -0.020441 -0.519190
63.97449875 20.98580170 31.24670029 0.838268 -0.543553 -0.043095
63.01990128 21.01190186 31.24839973 -0.993265 0.106381 -0.045912
63.99010086 21.01339722 31.24049950 0.772208 -0.530389 -0.349831
63.04130173 21.05629730 31.24500084 -0.912329 0.172218 -0.371479
63.96030045 21.05269623 31.24990082 0.943904 0.088450 0.318155
63.98189926 21.07460022 31.24080086 0.835606 0.546304 0.057580
63.08969879 21.08840179 31.24699974 0.595467 0.713576 -0.369091
64.00640106 21.08450317 31.24990082 0.985174 -0.163217 -0.052840
63.04510117 21.10260010 31.24259949 -0.494867 0.868403 0.031355
63.12379837 21.11489868 31.24799919 -0.517164 0.855572 0.023197
63.97349930 21.11199951 31.24239922 0.963724 -0.101108 0.247010
63.98880005 21.12889862 31.24729919 0.904503 0.295618 0.307384
63.96749878 21.13439941 31.24909973 0.850180 0.327949 0.411879
63.15319824 21.14309692 31.24679947 -0.830559 -0.031891 -0.556017
63.14450073 21.16609955 31.24860001 -0.918131 0.237076 -0.317538
63.80799866 21.18569946 31.24959946 0.373054 0.885442 0.277169
63.90560150 21.18499756 31.24720001 0.150794 0.911811 0.381918
63.92910004 21.18350220 31.24939919 0.503128 0.657937 0.560340
63.87459946 21.20210266 31.24979973 0.473263 0.764753 0.437236
63.46099854 21.21469879 31.24710083 0.937909 0.243884 0.246672
63.79059982 21.21849823 31.24510002 -0.819446 0.566867 0.084671
63.89619827 21.21099854 31.24290085 0.547549 0.638526 0.540810
63.48120117 21.22389984 31.24010086 0.866594 -0.103877 0.488082
63.93450165 21.22350311 31.24200058 0.596423 0.793758 0.119285
63.18519974 21.23809814 31.24209976 -0.875773 0.351832 -0.330509
63.86090088 21.23480225 31.24539948 -0.937689 0.146045 0.315293
63.16210175 21.24829865 31.24180031 -0.682268 0.718256 -0.136454
63.46390152 21.26409912 31.24959946 0.736989 0.674266 0.047042
63.42190170 21.27040100 31.24419975 0.089586 0.851778 0.516186
63.24710083 21.30400085 31.24670029 -0.660031 0.740487 0.126643
63.38560104 21.32559967 31.24839973 0.864700 0.472860 0.169405
63.29339981 21.33799744 31.24769974 -0.865876 0.249336 0.433694
63.38940048 21.36239624 31.24609947 -0.793785 0.425184 -0.434884
63.45000076 21.40689850 31.24200058 -0.036990 -0.977255 -0.208815
63.48189926 21.40709686 31.24519920 0.175905 -0.708210 -0.683736
63.50189972 21.46499634 31.24869919 0.579564 0.763755 -0.284225
63.41650009 21.47799683 31.24010086 -0.601534 0.756259 0.257349
63.46139908 21.49130249 31.24320030 0.349070 0.888407 0.298133
63.57839966 21.76159668 31.24810028 -0.077822 -0.960651 -0.266635
63.60020065 21.76480103 31.24620056 0.858604 -0.437690 -0.266884
63.58010101 21.78869629 31.24589920 0.784306 -0.619922 -0.023682
63.60739899 21.79429626 31.24300003 0.994516 0.096243 0.040931
63.57870102 21.81520081 31.24860001 0.852818 -0.014914 -0.521995
63.37160110 21.83489990 31.24710083 -0.977761 0.020051 0.208762
63.59130096 21.83260345 31.24349976 0.911033 0.295904 -0.287158
63.64459991 21.84760284 31.24769974 0.165613 0.957903 -0.234507
63.57509995 21.86730194 31.24300003 0.710132 0.196485 -0.676096
63.50329971 21.90619659 31.24320030 0.108638 0.954186 -0.278795
63.57860184 21.90280151 31.24769974 0.858620 -0.012169 -0.512468
63.60929871 21.91410065 31.24979973 0.724045 0.417274 -0.549219
63.41149902 21.92680359 31.24640083 -0.825060 0.554405 -0.109135
63.57369995 21.92340088 31.24839973 0.474401 0.878674 0.053628
63.54059982 21.93080139 31.24710083 0.091771 0.782241 0.616179
63.47100067 21.94329834 31.24360085 -0.275996 0.818632 -0.503654
63.54550171 21.95649719 31.24990082 0.229621 0.815230 -0.531672
63.50999832 21.96579742 31.24860001 0.776002 0.431112 -0.460395
63.32600021 20.82170105 31.25830078 0.217249 -0.902533 0.371803
63.37440109 20.82769775 31.25950050 0.276063 -0.950884 0.140032
63.23580170 20.84239960 31.25149918 -0.267070 -0.962696 0.043477
63.42440033 20.89620209 31.25410080 0.903336 -0.428590 0.017144
63.46039963 20.91790009 31.25209999 0.542128 -0.633328 0.552262
63.79449844 20.92579651 31.25419998 -0.631633 -0.765391 0.123354
63.83819962 20.92050171 31.25849915 0.271012 -0.831621 -0.484725
63.86740112 20.94730377 31.25740051 0.372922 -0.858805 -0.351259
63.75659943 20.95739746 31.25460052 -0.271094 -0.896239 0.351089
63.80590057 20.95079803 31.25699997 -0.197560 -0.964248 0.176626
63.73609924 20.96920013 31.25639915 -0.371799 -0.927542 0.037832
63.77970123 20.96029663 31.25869942 0.113796 -0.993233 0.023201
63.01900101 20.98529816 31.25259972 -0.812818 0.345169 -0.469239
63.95339966 20.98909760 31.25049973 0.898397 -0.421696 0.122701
63.03639984 20.99520111 31.25559998 -0.938368 -0.042712 -0.342990
63.00239944 21.00209808 31.25629997 -0.990799 0.053588 -0.124277
63.96139908 21.02860260 31.25419998 0.935992 -0.272823 -0.222456
63.98339844 21.02950287 31.25429916 0.465392 0.793903 0.391315
63.05889893 21.03810120 31.25629997 -0.836569 0.220952 -0.501332
64.01969910 21.03959656 31.25139999 0.918112 -0.260877 -0.298351
63.98640060 21.05280304 31.25410080 0.737010 -0.286171 0.612310
64.01629639 21.06710052 31.25309944 0.995390 0.076060 0.058423
63.06430054 21.07230377 31.25399971 -0.483239 0.236284 -0.843001
63.02090073 21.09210205 31.25849915 -0.820542 0.466397 0.330430
63.08259964 21.10890198 31.25779915 -0.524911 0.832979 -0.174970
63.15340042 21.10569763 31.25539970 -0.793152 0.548139 0.265431
63.96020126 21.11799622 31.25830078 0.003038 -0.035439 0.999367
63.51630020 21.14459991 31.25709915 0.862257 -0.343977 0.371742
63.94179916 21.14910126 31.25799942 0.694380 0.454594 0.557835
63.52510071 21.16429901 31.25200081 0.801600 0.563410 -0.200018
63.96429825 21.16919708 31.25670052 0.828292 0.410187 0.381680
63.88399887 21.17610168 31.25620079 0.159114 0.734954 0.659186
63.77460098 21.19889832 31.25819969 0.600786 0.634444 0.486351
63.16780090 21.20590210 31.25429916 -0.786527 0.617292 -0.018033
63.47259903 21.20210266 31.25830078 0.910509 0.391421 0.133279
63.14379883 21.22499847 31.25589943 -0.828805 0.483599 -0.281451
63.48109818 21.25019836 31.25779915 0.715948 0.672837 0.186301
63.18099976 21.26889801 31.25869942 -0.854192 0.502038 0.135332
63.20314789 21.27224731 31.25279999 -0.403425 0.888126 -0.220184
63.23130035 21.27189636 31.25799942 -0.536550 0.731359 -0.420985
63.41320038 21.28320313 31.25749969 0.380241 0.923443 -0.051670
63.38230133 21.29160309 31.25580025 -0.496525 0.811779 0.307373
63.44609833 21.29199982 31.25720024 0.553441 0.803184 -0.220452
63.40990067 21.31159973 31.25869942 0.391820 0.616662 -0.682792
63.42139816 21.33080292 31.25559998 0.384545 0.909570 0.157507
63.32469940 21.34860229 31.25379944 0.181723 0.774232 0.606252
63.30559921 21.37670135 31.25340080 -0.155311 0.977837 0.140401
63.41590118 21.41390228 31.25970078 -0.830504 -0.537385 0.146560
63.45940018 21.42369843 31.25090027 -0.824631 -0.004089 -0.565656
63.51850128 21.42579651 31.25419998 0.926777 0.358973 -0.110558
63.42050171 21.44760132 31.25440025 -0.998811 0.019707 0.044599
63.48600006 21.44889832 31.25079918 0.120297 0.738118 -0.663860
63.45970154 21.46420288 31.25349998 -0.088156 0.311837 -0.946037
63.44350052 21.49890137 31.25200081 -0.474643 0.608818 0.635653
63.54579926 21.76820374 31.25989914 0.005481 -0.992008 0.126056
63.61209869 21.80930328 31.25989914 0.727474 -0.594022 -0.343394
63.38700104 21.85910034 31.25589943 -0.840722 0.508030 0.187327
63.60680008 21.86039734 31.25530052 0.856401 0.280360 -0.433562
63.60110092 21.89360046 31.25889969 0.799341 0.322597 -0.506938
63.38299942 21.90280151 31.25440025 -0.766383 0.624851 0.149061
63.40409851 21.90679932 31.25650024 0.504668 0.672332 0.541554
63.56019974 21.90540314 31.25740051 0.712567 0.701368 -0.018199
63.46070099 21.91660309 31.25090027 -0.528118 0.741998 -0.412952
63.38759995 21.92710114 31.25720024 -0.857034 0.503885 -0.107668
63.51890182 21.92769623 31.25200081 -0.050361 0.048218 -0.997567
63.43719864 21.93859863 31.25740051 -0.051352 0.189883 -0.980463
63.49779892 21.93669891 31.25880051 -0.173114 0.817398 -0.549448
63.41809845 21.95369720 31.25709915 -0.588272 0.770245 0.246290
63.49420166 21.95709991 31.25860023 -0.442069 0.893777 0.075744
63.58179855 21.95230103 31.25600052 0.370061 0.751533 -0.546125
63.44400024 21.96890259 31.25510025 0.045657 0.853655 -0.518834
63.53395081 21.97469711 31.25465012 0.344566 0.868306 -0.356817
63.48960114 21.98850250 31.25819969 -0.097812 0.953341 -0.285611
63.29919815 20.82849884 31.26899910 0.044906 -0.995608 -0.082146
63.22109985 20.83560181 31.26650047 -0.374668 -0.792753 -0.480797
63.13949966 20.84649658 31.26479912 -0.288215 -0.956973 -0.033687
63.34030151 20.84040070 31.26519966 0.220136 -0.974194 -0.049865
63.08039856 20.85739899 31.26530075 -0.415178 -0.776627 -0.473791
63.39929962 20.85189819 31.26740074 0.550884 -0.799170 0.240527
63.20019913 20.86849976 31.26099968 -0.789503 -0.581013 0.197759
63.03200150 20.87750244 31.26580048 -0.537440 -0.655374 -0.530701
63.06819916 20.87460327 31.26810074 -0.476524 -0.786669 -0.392527
63.42470169 20.87169647 31.26639938 0.125857 -0.937841 0.323440
63.46220016 20.87789917 31.26959991 0.665939 -0.632890 0.394937
63.05070114 20.89649963 31.26180077 -0.548391 -0.767104 -0.332894
63.07369995 20.89579773 31.26189995 -0.784890 -0.613694 -0.085598
63.48440170 20.91929626 31.26930046 0.664262 -0.747468 0.006934
63.01580048 20.92530060 31.26020050 -0.790467 -0.501858 -0.351141
63.86320114 20.92230225 31.26969910 -0.090850 -0.923416 0.372892
63.91870117 20.93750000 31.26589966 0.326121 -0.918025 -0.225555
63.76679993 20.94139862 31.26180077 -0.440506 -0.858149 -0.263694
63.83330154 20.94120026 31.26729965 -0.541003 -0.798175 0.265013
62.99489975 20.95240021 31.26880074 -0.868817 0.001335 -0.495132
63.49959946 20.95500183 31.26700020 0.880263 -0.457965 0.124121
63.96760178 20.95559692 31.26600075 0.795523 -0.584988 -0.157902
63.81430054 20.97299957 31.26880074 -0.456143 -0.849316 0.265699
63.92750168 20.97389984 31.26749992 0.660278 -0.740763 -0.123709
63.95339966 20.97979736 31.26860046 0.737583 -0.547027 -0.395896
63.96929932 21.00879669 31.26339912 0.668420 -0.598411 -0.441724
63.03620148 21.01779938 31.26539993 -0.655632 0.481244 -0.581852
63.03279877 21.03820038 31.26919937 -0.651738 0.506907 -0.564166
63.02780151 21.06459808 31.26289940 -0.739351 -0.352613 -0.573606
63.96200180 21.07700348 31.26189995 0.779010 0.135545 -0.612186
63.98860168 21.08280182 31.26379967 0.859123 0.387145 -0.334703
63.06940079 21.09230042 31.26379967 -0.460432 0.835022 -0.301232
63.10760117 21.09760284 31.26000023 -0.341546 0.746221 -0.571402
63.97570038 21.10669708 31.26950073 0.945136 0.135788 -0.297119
63.14130020 21.12280273 31.26899910 -0.734433 0.023873 -0.678262
63.12049866 21.13310242 31.26169968 -0.680871 0.359303 -0.638214
63.98339844 21.13179779 31.26930046 0.350574 0.936147 -0.026967
63.14970016 21.15059662 31.26569939 -0.817767 0.316707 -0.480576
63.97140121 21.15249634 31.26700020 0.645413 0.712345 -0.275695
63.12570190 21.16960144 31.26040077 -0.964372 0.199660 -0.173561
63.16989899 21.18959808 31.26749992 -0.684719 0.687867 -0.240832
63.49850082 21.18560028 31.26860046 0.731664 0.681493 0.015330
63.85290146 21.18969727 31.26880074 0.097259 0.939280 0.329081
63.14730072 21.19930267 31.26440048 -0.816230 0.499765 -0.289832
63.82180023 21.19000244 31.26860046 0.007215 0.998800 -0.048445
63.89329910 21.19680023 31.26129913 0.179128 0.863073 0.472248
63.18399811 21.21759796 31.26829910 -0.847114 0.452103 -0.279285
63.86140060 21.21530151 31.26560020 0.061756 0.733896 0.676448
63.17330170 21.23590088 31.26210022 -0.802272 0.596490 -0.023637
63.46760178 21.23229980 31.26790047 0.872121 0.131179 0.471378
63.19540024 21.24620056 31.26700020 -0.824751 0.535259 -0.182440
63.43529892 21.24379730 31.26860046 0.486439 0.627826 0.607628
63.44820023 21.27200317 31.26239967 0.487648 0.820065 0.299488
63.20460129 21.28759766 31.26670074 -0.155276 0.956874 -0.245522
63.24549866 21.29419708 31.26880074 -0.440245 0.737039 -0.512794
63.20169830 21.31860352 31.26729965 -0.764941 0.626681 -0.148780
63.25880051 21.31980133 31.26770020 0.198206 0.976255 0.087407
63.27560043 21.31020355 31.26189995 -0.469726 0.875205 -0.115647
63.32429886 21.31759644 31.26609993 -0.141753 0.795311 0.589395
63.30300140 21.32299805 31.26490021 -0.552170 0.820069 -0.150321
63.35499954 21.32890320 31.26219940 -0.001005 0.999575 -0.029133
63.24660110 21.34639740 31.26729965 -0.845055 0.532175 -0.051681
63.43709946 21.41210175 31.26989937 -0.779478 -0.335899 -0.528759
63.50360107 21.44370270 31.26499939 0.923371 0.383115 -0.024675
63.39899826 21.45890045 31.26210022 -0.017166 0.899257 0.437084
