99.73439789 16.99610138 28.65480042 -0.131019 0.989017 0.068408
99.78309631 16.99400330 28.65810013 0.025472 0.999525 -0.017321
99.84079742 16.99279785 28.65649986 -0.034289 0.980186 -0.195091
99.75240326 17.00879669 28.65480042 0.144069 0.964357 0.221945
99.80840302 16.69950104 28.66539955 0.227189 -0.968409 0.102806
99.72360229 16.70600128 28.66979980 -0.076392 -0.884761 0.459742
99.78209686 16.70169830 28.66220093 0.037537 -0.999295 0.001015
99.79429626 16.70120239 28.66130066 0.134968 -0.990143 0.037428
99.69599915 16.71209717 28.66650009 -0.332641 -0.940071 0.074943
99.75340271 16.71320343 28.66690063 0.024290 -0.998016 0.058086
99.76869965 16.71340179 28.66500092 0.074451 -0.997220 0.003146
99.78060150 16.71140289 28.66110039 0.017420 -0.981315 -0.191618
99.81030273 16.71499634 28.66819954 0.287217 -0.956971 -0.041389
99.70719910 16.72989655 28.66440010 -0.401870 -0.892883 0.203127
99.66519928 16.73989868 28.66300011 -0.597313 -0.800653 -0.046599
99.80010223 16.73100281 28.66600037 0.332985 -0.925895 -0.178435
99.82769775 16.73799896 28.66710091 -0.221526 -0.959062 0.176425
99.84249878 16.73909760 28.66819954 0.291545 -0.938193 0.186533
99.63929749 16.74710083 28.66679955 -0.724878 -0.688842 0.006930
99.64350128 16.74980164 28.66979980 -0.818462 -0.569924 0.072847
99.70040131 16.74810028 28.66419983 -0.528597 -0.843750 -0.093113
99.79149628 16.74089813 28.66379929 0.341549 -0.832623 -0.435986
99.87290192 16.74900055 28.66729927 0.626681 -0.764941 -0.148780
99.64669800 16.75420380 28.66279984 -0.721727 -0.683195 -0.111149
99.62609863 16.76599884 28.66950035 -0.892132 -0.369619 0.259772
99.65429688 16.76260376 28.66570091 -0.736232 -0.672338 0.076963
99.64710236 16.77220154 28.66160011 -0.883256 -0.460525 0.088186
99.62860107 16.79370117 28.66720009 -0.977584 -0.172661 0.120490
99.63259888 16.79859924 28.66720009 -0.965808 -0.213904 0.146492
99.62290192 16.80069733 28.66810036 -0.973630 -0.201743 0.106510
99.90460205 16.80349731 28.66290092 0.599801 -0.682876 0.417036
99.64440155 16.81909943 28.66209984 -0.972098 -0.207498 0.109408
99.90820313 16.81639862 28.66080093 0.798764 -0.470901 0.374471
99.63030243 16.82080078 28.66600037 -0.993140 -0.104364 0.052743
99.62069702 16.83959961 28.66869926 -0.996288 0.070775 -0.048998
99.92759705 16.83239746 28.66370010 0.822370 -0.448421 0.350181
99.91089630 16.85500336 28.66640091 0.808793 -0.560864 0.176876
99.64070129 16.86779785 28.66760063 -0.983223 0.175871 -0.048394
99.61959839 16.87570190 28.66830063 -0.999875 -0.008990 -0.012985
99.64420319 16.88544846 28.66690063 -0.996241 -0.062333 0.060146
99.60420227 16.90260315 28.66500092 -0.968327 0.231035 -0.094686
99.60500336 16.91629791 28.66880035 -0.906239 0.264991 0.329408
99.62940216 16.91519928 28.66500092 -0.883833 0.467756 -0.006625
99.64279938 16.91649628 28.66410065 -0.812503 0.575823 0.090920
99.90450287 16.91149902 28.66880035 0.732969 0.545197 0.406839
99.64730072 16.94670105 28.66979980 -0.772288 0.595143 0.222208
99.65840149 16.94419861 28.66189957 -0.743465 0.638360 0.199391
99.84190369 16.95210266 28.66500092 -0.449707 0.268596 -0.851833
99.66280365 16.97080231 28.66559982 -0.655760 0.752910 0.055718
99.68440247 16.97359848 28.66410065 -0.527363 0.843493 -0.102024
99.69370270 16.97630310 28.66480064 -0.439907 0.872358 -0.213243
99.71890259 16.97579956 28.66889954 -0.194715 0.973573 -0.119341
99.83180237 16.97170258 28.66069984 0.127662 0.907660 -0.399819
99.71855164 16.98559952 28.66534996 -0.149852 0.933479 -0.325824
99.75650024 16.98549652 28.66810036 -0.056900 0.994076 0.092602
99.80760193 16.98719788 28.66440010 -0.098469 0.990484 -0.096152
99.81089783 16.98580170 28.66440010 -0.050193 0.998739 0.001024
99.85009766 16.98580170 28.66270065 -0.133970 0.822961 -0.552076
99.87229919 17.01419830 28.66449928 -0.176379 0.984306 -0.005690
99.80020142 16.69560242 28.67639923 0.199020 -0.978212 0.059103
99.70500183 16.70359802 28.67070007 -0.386174 -0.916649 0.103071
99.66500092 16.71620178 28.67429924 -0.526202 -0.842214 0.117417
99.70539856 16.71230316 28.67760086 -0.305974 -0.929203 0.207273
99.75969696 16.71260071 28.67690086 0.040789 -0.984774 0.168985
99.77709961 16.71880341 28.67300034 0.038447 -0.984475 0.171264
99.70580292 16.72090149 28.67449951 -0.157564 -0.986233 0.050187
99.75800323 16.72450256 28.67779922 0.310258 -0.933557 0.179477
99.82219696 16.72619629 28.67320061 0.454370 -0.888024 0.070434
99.84519958 16.72550201 28.67729950 0.280841 -0.925209 0.255181
99.68669891 16.73239899 28.67420006 -0.605363 -0.792293 0.076210
99.69270325 16.73030090 28.67830086 -0.382583 -0.908813 0.166402
99.81520081 16.73719788 28.67799950 0.013019 -0.974029 0.226050
99.88839722 16.73760223 28.67550087 0.548850 -0.828370 -0.112099
99.61289978 16.74579620 28.67560005 -0.727987 -0.656889 0.196294
99.81749725 16.74109650 28.67700005 -0.065603 -0.919776 0.386922
99.63169861 16.75900269 28.67460060 -0.845790 -0.498492 0.190116
99.66179657 16.75090027 28.67790031 -0.656035 -0.747437 0.104671
99.62190247 16.78009796 28.67830086 -0.942911 -0.292534 0.159193
99.63529968 16.81469727 28.67709923 -0.968729 -0.134368 0.208590
99.63700104 16.82520294 28.67099953 -0.971900 -0.122593 0.200952
99.89800262 16.82679749 28.67560005 0.966452 0.180318 -0.182912
99.91120148 16.82089996 28.67379951 0.949866 -0.199757 0.240524
99.91089630 16.83260345 28.67560005 0.889993 -0.452516 0.056052
99.62480164 16.84239960 28.67169952 -0.998927 0.025933 -0.038380
99.62680054 16.85790253 28.67560005 -0.997080 0.057130 0.050662
99.93949890 16.85669708 28.67160034 0.830280 -0.543270 0.124469
99.60469818 16.86280060 28.67539978 -0.993047 -0.093769 -0.071174
99.61540222 16.89450073 28.67510033 -0.998670 0.050710 0.009314
99.62220001 16.90229797 28.67210007 -0.994895 0.076701 0.065585
99.63390350 16.93240356 28.67880058 -0.766464 0.590193 0.253389
99.64649963 16.93679810 28.67490005 -0.734952 0.637794 0.230358
99.64600372 16.94120026 28.67180061 -0.733644 0.625895 0.264619
99.65940094 16.94629669 28.67690086 -0.775999 0.597750 0.201299
99.67379761 16.95539856 28.67390060 -0.731071 0.633174 0.254217
99.66059875 16.96119690 28.67169952 -0.698695 0.704654 0.123650
99.69280243 16.96269989 28.67189980 -0.608420 0.750648 -0.257591
99.89540100 16.96859741 28.67709923 0.805635 0.501741 -0.314973
99.74720001 16.97599792 28.67110062 -0.020149 0.975456 0.219270
99.79290009 16.97679901 28.67740059 -0.120165 0.952077 -0.281265
99.67739868 16.98139954 28.67259979 -0.721192 0.689396 0.067928
99.68389893 16.98789978 28.67359924 -0.548935 0.807258 -0.216806
99.70010376 16.98290253 28.67270088 -0.459028 0.824988 -0.329680
99.77619934 16.98629761 28.67020035 -0.036130 0.995207 -0.090871
99.80280304 16.98549652 28.67440033 -0.138509 0.956372 -0.257231
99.70020294 16.99960327 28.67860031 -0.410417 0.633073 -0.656335
99.76059723 16.99770355 28.67700005 -0.054863 0.997213 -0.050560
99.81529999 16.99939728 28.67930031 -0.132889 0.913435 -0.384678
99.82380676 16.99530029 28.67440033 -0.229054 0.903086 -0.363277
99.87310028 16.99230194 28.67469978 0.502687 0.840831 0.200773
99.70839691 17.00720215 28.67950058 -0.141144 0.947681 -0.286321
99.82160187 17.02480316 28.67810059 -0.262050 0.719447 -0.643215
99.80290222 16.70809937 28.68320084 0.199509 -0.975239 0.095417
99.67710114 16.71939850 28.68829918 -0.554102 -0.816965 0.159809
99.73200226 16.71150208 28.68079948 -0.024926 -0.976851 0.212462
99.74700165 16.71399689 28.68479919 -0.038520 -0.984006 0.173923
99.78549957 16.71130371 28.68210030 0.132745 -0.912450 0.387058
99.81549835 16.71260071 28.68029976 0.366594 -0.928969 0.051244
99.65950012 16.72109985 28.68320084 -0.527042 -0.847483 -0.063245
99.68260193 16.72760010 28.68930054 -0.588914 -0.807852 0.023557
99.70719910 16.72429657 28.68950081 -0.330537 -0.943486 0.024062
99.73239899 16.72010040 28.68169975 -0.067022 -0.986513 0.149329
99.79630280 16.72409821 28.68199921 0.224785 -0.920615 0.319280
99.82409668 16.72879791 28.68519974 0.153509 -0.961724 0.226983
99.63559723 16.73799896 28.68989944 -0.663508 -0.740351 0.107876
99.66649628 16.73979950 28.68099976 -0.559071 -0.799333 0.220240
99.86340332 16.73970032 28.68729973 0.048953 -0.960229 0.274889
99.88510132 16.73919678 28.68840027 0.503909 -0.862059 -0.054139
99.66549683 16.74510193 28.68300056 -0.596423 -0.793758 0.119285
99.78710175 16.74780273 28.68169975 0.522768 -0.849674 -0.069045
99.85099792 16.74240112 28.68320084 0.055235 -0.949270 0.309573
99.86424255 16.74670029 28.68619919 0.167146 -0.982435 0.082972
99.65429688 16.75700378 28.68680000 -0.737918 -0.585469 0.335712
99.82070160 16.76570129 28.68079948 -0.125332 -0.942008 0.311307
99.63939667 16.77110291 28.68149948 -0.761489 -0.530932 0.371814
99.66079712 16.77660370 28.68959999 -0.724921 -0.539975 0.427687
99.64050293 16.78610229 28.68239975 -0.950261 -0.303825 0.068522
99.63520050 16.79820251 28.68320084 -0.955824 -0.243955 0.163970
99.62220001 16.81479645 28.68899918 -0.990771 -0.100346 0.091119
99.61589813 16.82859802 28.68880081 -0.990122 -0.131331 0.049106
99.91590118 16.83414841 28.68614960 0.938117 -0.337405 -0.078066
99.61329651 16.84929657 28.68059921 -0.993650 -0.066243 -0.090944
99.64849854 16.84809875 28.68280029 -0.980999 0.190061 -0.038957
99.62339783 16.87249756 28.68840027 -0.996107 0.033674 0.081470
99.65509796 16.88790131 28.68440056 -0.899339 0.431190 0.072549
99.62920380 16.89510345 28.68420029 -0.920615 0.319280 0.224785
99.62969971 16.92400360 28.68790054 -0.762263 0.501102 0.409696
99.64990234 16.92960358 28.68400002 -0.818283 0.537903 0.202666
99.67769623 16.93440247 28.68610001 -0.701483 0.673235 0.233828
99.65354919 16.94620132 28.68529892 -0.792234 0.573793 0.207673
99.88120270 16.95739746 28.68720055 0.860457 0.404831 -0.309395
99.68879700 16.96160126 28.68989944 -0.647701 0.731575 0.212794
99.69750214 16.96469879 28.68490028 -0.599696 0.762537 0.242697
99.68345642 16.97834778 28.68619919 -0.630540 0.776155 -0.001374
99.74040222 16.97550201 28.68409920 -0.048315 0.997446 -0.052610
99.88580322 16.97799683 28.68300056 0.570627 0.798878 -0.190209
99.68849945 16.98989868 28.68659973 -0.661422 0.743550 0.098260
99.70169830 16.98049927 28.68680000 -0.351296 0.922326 0.160952
99.71779633 16.98120117 28.68490028 -0.160207 0.985802 0.050284
99.73629761 16.98940277 28.68190002 -0.024290 0.998016 0.058086
99.76580048 16.98220062 28.68919945 -0.119952 0.953024 -0.278130
99.77670288 16.98549652 28.68219948 -0.079389 0.948766 -0.305844
99.78700256 16.98979950 28.68820000 -0.112106 0.936019 -0.333617
99.81529999 16.98999786 28.68339920 -0.155180 0.877417 -0.453937
99.75319672 16.99069977 28.68199921 -0.153474 0.987917 -0.021600
99.79049683 16.99549866 28.68420029 -0.084397 0.931048 -0.355004
99.84700012 16.99099731 28.68190002 0.076648 0.991846 -0.101816
99.79810333 17.00039673 28.68219948 -0.206271 0.910191 -0.359172
99.82499695 17.00090027 28.68530083 -0.024846 0.916683 -0.398842
99.83470154 17.00240326 28.68840027 0.190792 0.910925 -0.365805
99.84929657 17.00930023 28.68040085 0.136518 0.975664 0.171587
99.69999695 17.01850128 28.68140030 -0.505296 0.174394 -0.845141
99.68820190 16.70760345 28.69650078 -0.203438 -0.971701 0.120041
99.73040009 16.70839691 28.69879913 0.058181 -0.991367 0.117504
99.68289948 16.71970367 28.69939995 -0.559898 -0.802265 0.207086
99.76830292 16.71959686 28.69890022 0.258856 -0.964828 0.045826
99.78269958 16.71559906 28.69300079 0.209031 -0.909646 0.358957
99.83940125 16.71970367 28.69339943 0.362892 -0.929164 0.070452
99.73130035 16.72560120 28.69960022 -0.118229 -0.960123 0.253348
99.76550293 16.72959900 28.69479942 0.263944 -0.941079 0.211432
99.72650146 16.73310089 28.69449997 -0.172256 -0.967484 0.185208
99.63990021 16.74800110 28.69980049 -0.698943 -0.663916 0.265885
99.79229736 16.74900055 28.69479942 0.382392 -0.888280 -0.254432
99.63610077 16.75959778 28.69059944 -0.707763 -0.673541 0.213107
99.66889954 16.75090027 28.69190025 -0.750756 -0.641995 0.155589
99.61699677 16.77469635 28.69039917 -0.989729 -0.135845 0.044521
99.64710236 16.77030182 28.69560051 -0.776547 -0.553309 0.301370
99.65850067 16.78589630 28.69650078 -0.766436 -0.579191 0.277694
99.88520050 16.78929901 28.69790077 0.933825 0.132622 0.332239
99.63339996 16.79360199 28.69529915 -0.961407 -0.265435 0.072391
99.62249756 16.80329895 28.69610023 -0.968216 -0.245446 0.048102
99.63420105 16.80719757 28.69910049 -0.978752 -0.205017 0.003475
99.60500336 16.81580353 28.69490051 -0.960634 -0.239831 -0.140229
99.63430023 16.84989929 28.69269943 -0.995283 -0.090878 0.033943
99.92430115 16.84140015 28.69359970 0.844189 -0.521624 -0.123504
99.62409973 16.85289764 28.69659996 -0.999667 -0.017218 -0.019244
99.62799835 16.86720276 28.69750023 -0.978614 0.155040 -0.135195
99.92690277 16.86329651 28.69840050 0.900275 -0.414098 -0.134264
99.64589691 16.87270355 28.69350052 -0.959404 0.262833 -0.102285
99.94360352 16.87989807 28.69939995 0.876417 -0.425518 0.225450
99.62580109 16.89669800 28.69919968 -0.943635 0.325794 0.058409
99.63739777 16.89330292 28.69029999 -0.915502 0.378780 0.135578
99.64479828 16.91339874 28.69009972 -0.936458 0.343763 0.069806
99.65689850 16.91300201 28.69619942 -0.917945 0.377978 0.120454
99.66300201 16.92400360 28.69910049 -0.875108 0.380679 0.298780
99.67269897 16.92169952 28.69020081 -0.900868 0.360053 0.242485
99.89939880 16.92510223 28.69059944 0.859456 0.421302 -0.289550
99.63849640 16.93450165 28.69879913 -0.823148 0.567546 0.017865
99.66439819 16.94969940 28.69389915 -0.735764 0.653163 0.178970
99.66729736 16.96929932 28.69470024 -0.679105 0.697925 0.227414
99.67870331 16.97190094 28.69869995 -0.747873 0.626597 0.219231
99.68900299 16.98919678 28.69759941 -0.724590 0.625419 0.289516
99.79049683 16.98629761 28.69930077 -0.108083 0.943392 -0.313575
99.70069885 16.99310303 28.69560051 -0.405839 0.903593 0.137165
99.73650360 16.99099731 28.69989967 -0.161080 0.980004 -0.116814
99.86689758 16.99099731 28.69470024 0.554227 0.824795 0.112009
99.70980072 17.00119781 28.69459915 -0.035299 0.989514 0.140058
99.76210022 17.00849915 28.69790077 -0.098512 0.903258 -0.417636
99.79299927 17.00090027 28.69910049 -0.149985 0.934313 -0.323363
99.78240204 17.01190186 28.69300079 -0.011981 0.882621 -0.469932
99.80590057 17.01979828 28.69700050 -0.266184 0.865479 -0.424373
99.70890045 16.70310211 28.70870018 0.008115 -0.979646 0.200567
99.75360107 16.70909882 28.70890045 -0.119948 -0.992091 -0.036993
99.75630188 16.71800232 28.70879936 -0.147384 -0.988935 0.016876
99.79769897 16.71810150 28.70009995 0.061629 -0.962171 0.265383
99.83119965 16.71589661 28.70829964 0.370367 -0.927881 0.043188
99.65720367 16.72830200 28.70910072 -0.687196 -0.722064 0.079907
99.69190216 16.73719788 28.70019913 -0.388209 -0.901972 0.189053
99.71080017 16.73159790 28.70540047 -0.167527 -0.970633 0.172642
99.83000183 16.73629761 28.70009995 0.259384 -0.962885 0.074652
99.84850311 16.73149872 28.70030022 0.247307 -0.968720 -0.020508
99.79820251 16.74340057 28.70579910 0.222699 -0.970062 -0.096880
99.82510376 16.74030304 28.70009995 0.256972 -0.963329 0.077218
99.83769989 16.74849701 28.70800018 0.217671 -0.975310 0.037281
99.65370178 16.75810242 28.70579910 -0.887320 -0.459239 0.041995
99.67259979 16.75820160 28.70190048 -0.730713 -0.584245 0.353151
99.78119659 16.75509644 28.70560074 0.558559 0.060805 -0.827233
99.88159943 16.75029755 28.70429993 0.506500 -0.840159 0.193883
99.65579987 16.76770020 28.70269966 -0.752879 -0.527505 0.393588
99.68150330 16.76280212 28.70789909 -0.729201 -0.596028 0.336179
99.83589935 16.76619720 28.70289993 -0.385871 -0.766858 0.512867
99.63999939 16.77770233 28.70249939 -0.809942 -0.542523 0.222849
99.89530182 16.77330017 28.70820045 0.969491 -0.195947 -0.147281
99.61090088 16.78060150 28.70829964 -0.904273 -0.403314 -0.140099
99.64309692 16.78209686 28.70050049 -0.892387 -0.449569 0.039152
99.64710236 16.80000305 28.70030022 -0.916146 -0.356516 0.183229
99.64430237 16.81739807 28.70910072 -0.978685 -0.202855 0.032030
99.57599640 16.82230377 28.70059967 0.000000 0.000000 0.000000
99.62689972 16.82990265 28.70490074 -0.991178 -0.125738 0.041913
99.62560272 16.83380127 28.70179939 -0.989196 -0.142289 -0.035288
99.92749786 16.85310364 28.70649910 0.905527 -0.422757 -0.036008
99.60649872 16.87500000 28.70229912 -0.992900 0.102792 -0.059868
99.62390137 16.87539673 28.70339966 -0.971025 0.235142 0.042642
99.64279938 16.87560272 28.70450020 -0.912121 0.304040 -0.274946
99.61519623 16.88529968 28.70520020 -0.962171 0.265383 0.061629
99.63040161 16.89140320 28.70319939 -0.935453 0.336115 -0.109339
99.64959717 16.89659882 28.70630074 -0.920595 0.390517 -0.001280
99.64170074 16.90699768 28.70919991 -0.902766 0.402335 -0.152120
99.64320374 16.94940186 28.70170021 -0.793648 0.605566 0.058419
99.90670013 16.94539642 28.70639992 0.910451 0.178660 -0.373042
99.72959900 16.98320007 28.70689964 -0.273363 0.949363 -0.154861
99.85459900 16.98799896 28.70470047 0.424200 0.901939 -0.080996
99.88390350 16.98300171 28.70190048 0.538608 0.840788 -0.054560
99.71980286 16.99109650 28.70680046 -0.354917 0.931823 0.075769
99.77880096 16.99900055 28.70409966 -0.090524 0.889918 -0.447048
99.80670166 16.99790192 28.70730019 -0.084267 0.932282 -0.351779
99.83560181 16.99729919 28.70649910 0.217381 0.973914 -0.065091
99.74659729 17.00109863 28.70579910 -0.295118 0.879299 -0.373816
99.80010223 17.01390076 28.70610046 -0.152198 0.956862 -0.247487
99.69979858 16.69869995 28.71769905 0.217063 -0.967152 0.132293
99.72360229 16.72090149 28.71459961 -0.180403 -0.966907 0.180403
99.74189758 16.72190094 28.71269989 -0.139899 -0.988544 0.056653
99.80840302 16.72740173 28.71010017 0.066561 -0.996229 0.055649
99.81240082 16.72299957 28.71820068 0.334290 -0.931335 0.144446
99.86660004 16.72910309 28.71839905 0.240830 -0.967101 0.081958
99.70559692 16.73429871 28.71439934 -0.396014 -0.819064 0.415099
99.77249908 16.73899841 28.71269989 0.244071 -0.947649 -0.205892
99.80349731 16.73509979 28.71599960 0.087642 -0.983271 -0.159677
99.88629913 16.73919678 28.71649933 0.523853 -0.840806 0.136466
99.68154907 16.74034882 28.71409988 -0.568263 -0.784297 0.248909
99.84190369 16.74179840 28.71310043 0.345710 -0.926058 0.151335
99.86479950 16.74680328 28.71220016 0.167305 -0.954305 0.247611
99.84349823 16.76170349 28.71190071 -0.026263 -0.987698 0.154149
99.89820099 16.76699829 28.71920013 0.895658 -0.365665 -0.253153
99.63459778 16.78990173 28.71330070 -0.930982 -0.364409 -0.021890
99.65160370 16.78179932 28.71549988 -0.789503 -0.581013 0.197759
99.62670135 16.80030060 28.71619987 -0.946601 -0.315534 -0.066223
99.63259888 16.81349945 28.71710014 -0.955252 -0.236475 0.177690
99.63500214 16.82460022 28.71699905 -0.978283 -0.137629 0.154988
99.62529755 16.83609772 28.71279907 -0.981166 0.008090 0.192997
99.92620087 16.83100128 28.71279907 0.953671 -0.203109 -0.221940
99.63749695 16.84860229 28.71170044 -0.997388 0.058922 0.041781
99.61579895 16.86209869 28.71649933 -0.997028 -0.076856 0.005264
99.62779999 16.86740112 28.71549988 -0.997145 0.009497 0.074918
99.64099884 16.87110138 28.71549988 -0.986620 0.142630 0.078977
99.62180328 16.88259888 28.71730042 -0.966453 0.248802 -0.063763
99.93890381 16.88549805 28.71929932 0.938502 -0.340680 -0.056127
99.62270355 16.89969635 28.71509933 -0.905269 0.420835 0.058186
99.94879913 16.89409637 28.71120071 0.922507 -0.385351 -0.022057
99.63839722 16.92160034 28.71800041 -0.911442 0.386204 0.141842
99.90570068 16.92829895 28.71859932 0.920366 -0.297217 0.254142
99.65589905 16.93509674 28.71100044 -0.842992 0.535433 0.051726
99.67659760 16.94719696 28.71599960 -0.779700 0.609094 -0.145165
99.67330170 16.95809937 28.71780014 -0.802073 0.594076 -0.061260
99.91030121 16.95259857 28.71739960 0.991782 0.125782 -0.023375
99.89019775 16.96929932 28.71010017 0.665072 0.741080 -0.092087
99.69850159 16.97059631 28.71489906 -0.499488 0.861722 0.089144
99.72329712 16.97450256 28.71500015 -0.353197 0.935528 -0.006330
99.70870209 16.98069763 28.71980095 -0.422757 0.905527 -0.036008
99.78620148 16.98729706 28.71220016 -0.171028 0.964805 -0.199750
99.86789703 16.99320221 28.71669960 0.400988 0.867536 -0.294261
99.79460144 17.00209808 28.71409988 -0.092697 0.966338 -0.239997
99.81390381 17.00440216 28.71574974 -0.058796 0.980333 -0.188387
99.81140137 17.01290131 28.71610069 -0.098750 0.986310 -0.132063
99.76300049 17.03309631 28.71859932 -0.479000 0.788657 -0.385458
99.75630188 16.70510101 28.72100067 -0.102671 -0.990946 -0.086520
99.78350067 16.70700073 28.72410011 0.068327 -0.970239 -0.232311
99.66549683 16.71720123 28.72330093 -0.405364 -0.869938 0.280870
99.70850372 16.71859741 28.72949982 -0.156964 -0.983723 0.087469
99.76354980 16.71685028 28.72240067 -0.193773 -0.980607 0.029359
99.69180298 16.72810364 28.72430038 -0.651973 -0.703234 0.283536
99.74649811 16.72969818 28.72270012 -0.239241 -0.970321 -0.035218
99.75139618 16.72940063 28.72970009 -0.223795 -0.974515 -0.015393
99.83910370 16.72949982 28.72529984 0.378184 -0.923412 0.065481
99.69370270 16.73999786 28.72520065 -0.567307 -0.786104 0.245364
99.71029663 16.73629761 28.72540092 -0.353323 -0.892997 0.278782
99.82279968 16.73090363 28.72809982 0.349140 -0.930587 0.110040
99.64739990 16.74369812 28.72590065 -0.674905 -0.725785 0.133185
99.66130066 16.74420166 28.72599983 -0.473301 -0.880528 0.025620
99.80639648 16.74539948 28.72890091 -0.077300 -0.996194 0.040283
99.66230011 16.75189972 28.72190094 -0.638603 -0.769384 -0.015304
99.62590027 16.76069641 28.72159958 -0.819539 -0.515891 0.249425
99.64489746 16.76820374 28.72660065 -0.715300 -0.698502 0.020997
99.68900299 16.76779938 28.72590065 -0.777502 -0.604048 0.174976
99.85040283 16.76750183 28.72389984 0.802850 -0.426363 -0.416710
99.61440277 16.78430176 28.72629929 -0.948696 -0.273948 -0.157891
99.63469696 16.78420258 28.72640038 -0.870218 -0.487490 0.071238
99.62629700 16.79550171 28.72620010 -0.972492 -0.229464 -0.040065
99.66539764 16.79180145 28.72450066 -0.746800 -0.607271 0.271131
99.64199829 16.80419922 28.72319984 -0.952719 -0.293443 0.078855
99.62010193 16.81639862 28.72500038 -0.999688 0.013140 0.021227
99.61350250 16.84899902 28.72459984 -0.995175 -0.096377 -0.018409
99.92890167 16.84719849 28.72760010 0.952907 -0.302688 0.018684
99.93969727 16.87310028 28.72739983 0.912055 -0.409306 0.025006
99.60720062 16.88870239 28.72310066 -0.972878 0.231073 0.010665
99.64929962 16.88960266 28.72940063 -0.936264 0.345354 0.064344
99.64299774 16.90689850 28.72419930 -0.854638 0.519223 0.001342
99.93859863 16.90080261 28.72909927 0.994629 -0.102818 0.011905
99.61579895 16.91799927 28.72789955 -0.824888 0.562616 0.054993
99.65049744 16.92120361 28.72710037 -0.878281 0.475450 0.050696
99.65080261 16.93190002 28.71999931 -0.843918 0.535537 0.031664
99.71710205 16.97299957 28.72299957 -0.471878 0.878334 0.076558
99.90409851 16.97730255 28.72610092 0.780479 0.616476 -0.103966
99.69589996 16.98210144 28.72570038 -0.486136 0.873420 0.028437
99.85839844 16.98950195 28.72069931 0.435986 0.832623 -0.341549
99.75029755 16.99539948 28.72590065 -0.421332 0.904023 -0.072267
99.76190186 16.99210358 28.71999931 -0.196344 0.943273 -0.267741
99.84010315 16.99210358 28.72150040 0.196657 0.965051 -0.173214
99.77449799 17.00019836 28.72699928 0.033483 0.999426 0.005073
99.79900360 17.00270081 28.72220039 -0.189737 0.971607 -0.141348
99.77529907 17.01010132 28.72190094 0.065836 0.989856 -0.125898
99.84580231 17.01480103 28.72529984 0.186139 0.930695 -0.314897
99.76249695 17.02449799 28.72069931 -0.298749 0.935153 -0.190365
99.79940033 17.02439880 28.72890091 0.239713 0.957527 -0.160250
99.76540375 16.69809723 28.73410034 -0.183271 -0.976201 0.115947
99.81500244 16.70590210 28.73329926 0.280022 -0.959899 0.013451
99.69339752 16.71620178 28.73850060 -0.254123 -0.967111 -0.010839
99.77739716 16.71279907 28.73699951 0.184394 -0.974653 0.126692
99.71469879 16.72750092 28.73950005 0.024654 -0.980283 0.196057
99.73519897 16.72509766 28.73760033 -0.302693 -0.951504 0.054919
99.81880188 16.72969818 28.73710060 0.155693 -0.987570 0.021592
99.70149994 16.73320007 28.73629951 -0.465946 -0.875978 0.124730
99.86699677 16.73780060 28.73229980 0.272953 -0.962008 0.006066
99.68399811 16.74220276 28.73310089 -0.433755 -0.894181 0.110895
99.70649719 16.74590302 28.73719978 -0.446042 -0.875892 0.184011
99.73960114 16.74800110 28.73340034 -0.208244 -0.958981 0.192327
99.84799957 16.74349976 28.73019981 0.359831 -0.929674 0.078922
99.86080170 16.74939728 28.73620033 0.469710 -0.879486 -0.076659
99.85440063 16.75949860 28.73299980 0.469172 -0.858899 -0.205356
99.87370300 16.75160217 28.73019981 0.448721 -0.893448 -0.019973
99.66224670 16.76510239 28.73424911 -0.642920 -0.765647 -0.020919
99.91380310 16.76300049 28.73839951 -0.046919 -0.989885 -0.133892
99.62580109 16.77390289 28.73539925 -0.863193 -0.484727 0.141197
99.68319702 16.77130127 28.73579979 -0.703437 -0.703437 -0.101755
99.85559845 16.77809906 28.73690033 0.563229 -0.807848 -0.173650
99.87319946 16.78569794 28.73189926 -0.003763 -0.939530 -0.342446
99.60800171 16.80180359 28.73900032 -0.991757 -0.092870 -0.088284
99.64089966 16.80970001 28.73719978 -0.953689 -0.266609 0.139273
99.67379761 16.80090332 28.73450089 -0.688302 -0.722788 0.061789
99.62300110 16.82669830 28.73489952 -0.987531 -0.049782 -0.149345
99.68029785 16.82050323 28.73629951 0.080094 -0.392326 0.916332
99.64350128 16.84100342 28.73889923 -0.973163 -0.060132 0.222122
99.63500214 16.87110138 28.73250008 -0.986045 0.161437 0.040650
99.61820221 16.89009857 28.73819923 -0.953510 0.211741 0.214439
99.63099670 16.92199707 28.73990059 -0.906363 0.407933 -0.109989
99.67389679 16.92549896 28.73419952 -0.871548 0.490162 0.012086
99.64270020 16.93530273 28.73889923 -0.858188 0.510462 0.054245
99.64710236 16.94519806 28.73880005 -0.775341 0.622911 -0.104063
99.65350342 16.94809723 28.73380089 -0.710831 0.702318 0.038308
99.67289734 16.94380188 28.73100090 -0.812636 0.582042 -0.029172
99.71350098 16.96379852 28.73100090 -0.575851 0.790835 -0.207306
99.71060181 16.97029877 28.73590088 -0.391429 0.908625 -0.145550
99.71890259 16.98500061 28.73279953 -0.402313 0.896126 -0.187359
99.70639801 16.99720001 28.73259926 -0.371844 0.924911 -0.079201
99.73359680 16.99919891 28.73480034 -0.431354 0.897384 -0.092928
99.76159668 16.99440002 28.73299980 -0.063877 0.994023 0.088532
99.81199646 16.99330139 28.73030090 -0.090123 0.965970 -0.242445
99.79579926 17.00209808 28.73819923 -0.203111 0.969568 -0.136685
99.74140167 17.01119995 28.73170090 -0.442629 0.894791 -0.058563
99.76760101 17.01850128 28.73780060 -0.200952 0.971900 0.122593
99.87789917 17.01290131 28.73660088 0.616193 0.753472 -0.229317
99.81240082 17.02449799 28.73800087 -0.317128 0.943423 -0.096863
99.74579620 16.70469666 28.74690056 -0.149329 -0.986513 0.067022
99.78829956 16.71990204 28.74399948 0.228654 -0.972087 0.052578
99.70520020 16.72750092 28.74740028 -0.366023 -0.919929 -0.140564
99.74949646 16.72119904 28.74480057 -0.244477 -0.958087 0.149329
99.76119995 16.72519684 28.74379921 -0.031531 -0.949714 0.311526
99.67179871 16.73339844 28.74609947 -0.568062 -0.818297 0.087726
99.69020081 16.73799896 28.74419975 -0.577415 -0.814592 -0.055059
99.72640228 16.73149872 28.74850082 -0.091894 -0.992687 -0.078280
99.83840179 16.73999786 28.74510002 0.143909 -0.983179 0.112467
99.87989807 16.73799896 28.74939919 0.330793 -0.939241 0.091666
99.64589691 16.74420166 28.74189949 -0.557710 -0.758163 0.337859
99.65440369 16.74960327 28.74390030 -0.555309 -0.723384 0.410302
99.81110382 16.74739838 28.74189949 0.253880 -0.935570 0.245464
99.68280029 16.75700378 28.73999977 -0.463449 -0.884518 0.053317
99.86689758 16.75099945 28.74320030 0.610968 -0.790747 -0.037922
99.89140320 16.75360107 28.74430084 0.835164 -0.549986 -0.004074
99.64520264 16.76390076 28.74570084 -0.702421 -0.708215 0.070966
99.84709930 16.76339722 28.74900055 0.116840 -0.984110 -0.133704
99.87860107 16.76429749 28.74209976 0.164966 -0.970614 0.175197
99.88549805 16.76650238 28.74819946 0.902210 0.098398 -0.419923
99.64810181 16.77050018 28.74860001 -0.811293 -0.540349 0.223221
99.86270142 16.77799988 28.74690056 0.625226 -0.668345 -0.402997
99.64630127 16.78829956 28.74239922 -0.785255 -0.590085 0.187546
99.63565063 16.79100037 28.74129868 -0.839487 -0.534219 0.099356
99.61949921 16.83399963 28.74279976 -0.998481 0.047247 0.028348
99.63510132 16.83570099 28.74390030 -0.999776 -0.020974 0.002996
99.63359833 16.84539795 28.74069977 -0.991012 -0.063012 0.118005
99.93199921 16.85530090 28.74250031 0.921912 -0.381342 0.068240
99.91570282 16.86049652 28.74939919 0.619264 -0.755844 0.212630
99.63610077 16.87319946 28.74950027 -0.948731 0.149375 0.278563
99.64600372 16.87239838 28.74950027 -0.947405 0.155423 0.279762
99.62380219 16.89610291 28.74720001 -0.922372 0.320763 0.215268
99.63739777 16.89530182 28.74530029 -0.957438 0.279945 0.070306
99.64479828 16.90229797 28.74220085 -0.920750 0.383086 0.073929
99.65029907 16.90110016 28.74130058 -0.932373 0.358605 0.045641
99.66010284 16.90979767 28.74920082 -0.914902 0.392492 0.094362
99.65059662 16.91909790 28.74309921 -0.895027 0.441364 -0.064223
99.64320374 16.92160034 28.74900055 -0.908249 0.418083 0.017038
99.65390015 16.93544769 28.74645042 -0.791970 0.582197 -0.183932
99.66419983 16.93139648 28.74799919 -0.789877 0.600897 -0.122542
99.65760040 16.95089722 28.74880028 -0.779993 0.614852 -0.116483
99.66449738 16.95890045 28.74979973 -0.757890 0.652203 0.015297
99.68419647 16.95950317 28.74290085 -0.645222 0.747974 -0.155639
99.89489746 16.95629883 28.74729919 0.948432 0.301236 0.098658
99.67199707 16.97309875 28.74270058 -0.665502 0.731901 -0.146380
99.88210297 16.97650146 28.74200058 0.663584 0.710647 -0.233745
99.67749786 16.98490143 28.74160004 -0.653470 0.748304 -0.114098
99.68440247 16.98339844 28.74760056 -0.612624 0.768453 -0.184857
99.72640228 16.98999786 28.74780083 -0.293607 0.938716 -0.180575
99.88569641 16.98950195 28.74390030 0.610036 0.734925 -0.296212
99.71649933 16.99069977 28.74180031 -0.352774 0.911454 -0.211665
99.72949982 16.99089813 28.74440002 -0.192432 0.959508 -0.205704
99.79940033 16.99269867 28.74830055 -0.224577 0.971513 -0.075686
99.69889832 17.00330353 28.74749947 -0.482090 0.863684 -0.147103
99.72720337 17.00360107 28.74869919 -0.149027 0.965438 -0.213822
99.85070038 17.00160217 28.74449921 0.212751 0.945712 -0.245693
99.86650085 17.00090027 28.74160004 0.450811 0.844302 -0.289696
99.87819672 17.00489807 28.74559975 0.619569 0.710635 -0.333364
99.80030060 17.01930237 28.74500084 -0.175463 0.983301 -0.048282
99.82209778 17.01300049 28.74419975 -0.051809 0.956575 -0.286846
99.76789856 17.02349854 28.74279976 -0.329989 0.867182 0.372965
99.69609833 16.70639801 28.75559998 0.174325 -0.977952 -0.114980
99.73410034 16.71749878 28.75270081 -0.177390 -0.983281 -0.041117
99.76789856 16.71289825 28.75200081 -0.001195 -0.967043 0.254611
99.71350098 16.72930145 28.75849915 -0.091527 -0.979954 -0.176953
99.73560333 16.72440338 28.75270081 -0.180592 -0.983477 -0.012653
99.76499939 16.72660065 28.75979996 0.113734 -0.943327 0.311766
99.77059937 16.72899628 28.75880051 0.130449 -0.929620 0.344660
99.66459656 16.73729706 28.75909996 -0.789934 -0.578262 0.204002
99.83979797 16.73030090 28.75029945 0.342979 -0.936949 -0.067019
99.87149811 16.73629761 28.75340080 0.273870 -0.957901 0.086147
99.70690155 16.74530029 28.75629997 -0.387636 -0.921129 0.035479
99.79160309 16.74819946 28.75279999 0.370960 -0.909497 0.187628
99.65750122 16.75769806 28.75580025 -0.633874 -0.755481 0.165689
99.67379761 16.75260162 28.75499916 -0.528103 -0.846372 0.069005
99.68360138 16.75399780 28.75000000 -0.597228 -0.788821 0.145191
99.73290253 16.75469971 28.75830078 -0.305649 -0.941400 0.142636
99.87419891 16.75820160 28.75519943 0.707968 -0.585848 -0.394416
99.81220245 16.76609802 28.75769997 0.277003 -0.960194 0.036023
99.66950226 16.77600098 28.75869942 -0.798497 -0.596346 -0.082304
99.64050293 16.78250122 28.75939941 -0.804703 -0.544221 0.237225
99.66110229 16.78369904 28.75659943 -0.849628 -0.526742 -0.025995
99.61959839 16.80229950 28.75510025 -0.952143 -0.289441 0.098227
99.64244843 16.80915070 28.75419998 -0.941322 -0.327817 0.080309
99.60990143 16.82679749 28.75079918 -0.962995 0.230650 -0.139432
99.64489746 16.82199860 28.75810051 -0.982145 -0.080741 0.169917
99.63369751 16.83969879 28.75779915 -0.973718 0.025151 0.226363
99.64610291 16.83699799 28.75690079 -0.959503 0.006096 0.281633
99.61530304 16.84809875 28.75659943 -0.994219 0.007573 0.107103
99.63729858 16.85630035 28.75670052 -0.953544 0.046854 0.297587
99.62360382 16.86299896 28.75849915 -0.996895 -0.039876 0.067897
99.93599701 16.86399841 28.75650024 0.815934 -0.577665 0.023550
99.61830139 16.87129974 28.75239944 -0.995076 0.047385 0.087055
99.62639618 16.87899780 28.75839996 -0.962407 0.256897 0.088189
99.94680023 16.88980103 28.75230026 0.967446 -0.252430 -0.018117
99.65940094 16.91660309 28.75919914 -0.947395 0.319948 -0.008715
99.67489624 16.95729828 28.75679970 -0.735733 0.677098 0.015357
99.69039917 16.96829987 28.75379944 -0.691433 0.709431 -0.136487
99.70449829 16.97609711 28.75180054 -0.487391 0.870041 -0.074016
99.89839935 16.97879791 28.75300026 0.700955 0.622527 -0.348027
99.70300293 16.98590088 28.75670052 -0.523987 0.844442 -0.111149
99.75440216 16.98889923 28.75300026 -0.271689 0.962384 -0.001208
99.73950195 16.99369812 28.75489998 -0.220532 0.975293 0.012972
99.77649689 16.99710083 28.75209999 -0.169745 0.985435 0.010253
99.87409973 16.99649811 28.75970078 0.422427 0.906321 0.011770
99.77200317 17.00969696 28.75790024 -0.097901 0.995149 0.009683
99.79229736 17.00009918 28.75320053 -0.261126 0.964818 0.030649
99.81150055 17.00170135 28.75629997 -0.155040 0.978614 -0.135195
99.78150177 17.01329803 28.75289917 -0.205273 0.966978 0.151050
99.81089783 17.01190186 28.75609970 -0.289556 0.948730 -0.126764
99.81770325 17.03289795 28.75399971 -0.378540 0.911615 0.160206
99.68659973 16.71939850 28.76440048 -0.570987 -0.785691 -0.238041
99.70960236 16.71499634 28.76259995 -0.089459 -0.968933 -0.230578
99.71659851 16.72080231 28.76860046 -0.016021 -0.996484 -0.082239
99.74990082 16.72059631 28.76180077 -0.036052 -0.985020 0.168628
99.80429840 16.72090149 28.76810074 -0.010097 -0.988412 0.151459
99.79479980 16.73670197 28.76340103 0.470745 -0.874240 0.118759
99.80680084 16.73549652 28.76600075 0.168812 -0.982939 -0.073032
99.85230255 16.73490143 28.76429939 0.291912 -0.951660 -0.095559
99.88449860 16.74949646 28.76530075 0.865446 -0.455891 -0.207767
99.66539764 16.75450134 28.76390076 -0.779922 -0.625863 0.004127
99.67980194 16.75060272 28.76399994 -0.601316 -0.786337 -0.141750
99.72879791 16.75930023 28.76119995 0.496636 -0.835877 -0.233801
99.82039642 16.75140381 28.76790047 0.167185 -0.971205 -0.169737
99.84400177 16.75340271 28.76799965 0.034757 -0.938434 -0.343706
99.87760162 16.75460052 28.76819992 0.630074 -0.773599 -0.067457
99.67449951 16.76260376 28.76090050 -0.536151 -0.840491 -0.078218
99.64080048 16.77089691 28.76560020 -0.793906 -0.535058 0.288837
99.65059662 16.77590179 28.76059914 -0.756712 -0.609443 0.236570
99.87889862 16.77680206 28.76899910 0.872653 -0.178062 -0.454721
99.60430145 16.80210114 28.76199913 -0.897297 -0.432749 0.087103
99.65360260 16.80280304 28.76729965 -0.958730 -0.272643 -0.080641
99.62030029 16.81230164 28.76499939 -0.934282 -0.341087 0.103809
99.63169861 16.82430267 28.76000023 -0.971848 0.025227 0.234253
99.65290070 16.83550262 28.76700020 -0.955525 -0.183087 0.231197
99.60240173 16.84600067 28.76449966 -0.977974 0.206947 -0.027199
99.94090271 16.86370087 28.76849937 0.755039 -0.641409 -0.136056
99.63770294 16.88739777 28.76129913 -0.973191 0.214474 0.083062
99.65329742 16.89270020 28.76939964 -0.991008 0.077117 0.109345
99.62719727 16.91339874 28.76289940 -0.955416 0.291547 0.046698
99.63809967 16.92209625 28.76499939 -0.920487 0.357267 -0.158318
99.62680054 16.93979645 28.76269913 -0.740021 0.659292 -0.133054
99.65090179 16.93740082 28.76390076 -0.790870 0.610422 -0.043702
99.66970062 16.93389893 28.76110077 -0.779472 0.626088 -0.020916
99.66449738 16.94010162 28.76499939 -0.791857 0.610705 -0.001372
99.69670105 16.96769714 28.76090050 -0.502899 0.859059 0.095451
99.73439789 16.97760010 28.76799965 -0.424424 0.904090 -0.049853
99.71569824 16.98819733 28.76980019 -0.490829 0.871255 -0.001330
99.69539642 16.99780273 28.76359940 -0.500453 0.864418 -0.048253
99.76069641 16.99199677 28.76499939 -0.264505 0.964162 -0.020722
99.77839661 16.99970245 28.76609993 -0.152730 0.981136 -0.118518
99.71410370 17.00379944 28.76359940 -0.307099 0.951380 0.023816
99.74725342 17.00479889 28.76585007 -0.302887 0.943662 -0.133270
99.83989716 17.00920105 28.76140022 0.388539 0.920640 0.038195
99.77559662 17.01329803 28.76589966 -0.177109 0.950442 -0.255524
99.68599701 16.70369720 28.77350044 -0.217048 -0.957409 -0.190416
99.67150116 16.71710205 28.77729988 -0.812411 -0.579889 -0.060966
99.73670197 16.71720123 28.77969933 0.036674 -0.998575 0.038769
99.77220154 16.71720123 28.77499962 0.119767 -0.979126 0.164217
99.69349670 16.72160339 28.77840042 -0.264720 -0.959450 0.096849
99.71170044 16.72840118 28.77050018 0.048649 -0.981289 -0.186291
99.73259735 16.72170258 28.77869987 -0.037919 -0.999217 -0.011273
99.81199646 16.72360229 28.77610016 0.041033 -0.998479 0.036825
99.72949982 16.73030090 28.77260017 -0.177390 -0.983281 0.041117
99.68419647 16.74179840 28.77409935 -0.666814 -0.707607 -0.233777
99.75640106 16.74389648 28.77860069 -0.173755 -0.980563 0.091130
99.77539825 16.74759674 28.77269936 0.202323 -0.914043 0.351555
99.84279633 16.74790192 28.77610016 0.125679 -0.962678 -0.239698
99.89479828 16.74079895 28.77650070 0.959234 -0.266525 -0.093992
99.65090179 16.75129700 28.77680016 -0.796622 -0.570326 0.200302
99.64929962 16.76689911 28.77169991 -0.830736 -0.539611 0.136741
99.83480072 16.76419830 28.77589989 -0.114961 -0.912764 -0.391976
99.88330078 16.76429749 28.77919960 0.970326 -0.025376 -0.240467
99.89450073 16.76540375 28.77420044 0.934332 -0.333204 0.126482
99.67209625 16.77559662 28.77969933 -0.825751 -0.538012 0.169346
99.88559723 16.77749634 28.77210045 0.935289 -0.204899 -0.288532
99.63469696 16.78610229 28.77540016 -0.864328 -0.502263 0.025862
99.62590027 16.80539703 28.77210045 -0.916106 -0.371774 0.150112
99.63760376 16.80570221 28.77619934 -0.937623 -0.340595 -0.069697
99.64119720 16.82230377 28.77499962 -0.956240 -0.281853 -0.078507
99.61830139 16.83969879 28.77569962 -0.998693 0.007229 -0.050606
99.62667084 16.85566711 28.77426720 -0.975468 0.176561 0.131482
99.63410187 16.85209656 28.77269936 -0.979744 0.179355 0.089068
99.65859985 16.85459900 28.77079964 -0.980956 0.083460 0.175387
99.63700104 16.87355042 28.77400017 -0.974406 0.152527 0.165132
99.92639923 16.87349701 28.77429962 0.755039 -0.641409 -0.136056
99.61579895 16.89749908 28.77910042 -0.995918 0.089171 0.013966
99.63359833 16.90869904 28.77709961 -0.992276 0.116010 0.043926
99.65550232 16.92269897 28.77409935 -0.948923 0.308561 0.065844
99.91239929 16.92949677 28.77680016 -0.313973 0.201337 -0.927839
99.63670349 16.93920135 28.77580070 -0.756551 0.631728 -0.168968
99.65170288 16.94170380 28.77790070 -0.754142 0.653205 -0.067772
99.65730286 16.95700073 28.77370071 -0.627164 0.763175 -0.155658
99.69439697 16.95099640 28.77599907 -0.544910 0.813549 0.203006
99.68820190 16.96250153 28.77389908 -0.661003 0.708330 0.247679
99.67269897 16.97389984 28.77370071 -0.718413 0.689030 -0.095495
99.69319916 16.97519684 28.77680016 -0.655900 0.706721 0.265219
99.69560242 16.98259735 28.77169991 -0.589055 0.803256 0.088286
99.89430237 16.98719788 28.77890015 0.627515 0.776175 0.061465
99.74600220 16.99459839 28.77389908 -0.254725 0.943169 -0.213418
99.89969635 16.99169922 28.77490044 0.600904 0.798882 -0.026490
99.90740204 16.99079895 28.77899933 0.762317 0.610164 -0.215809
99.73519897 17.00420380 28.77070045 -0.298350 0.948090 -0.110058
99.79470062 17.00189972 28.77420044 -0.196452 0.972121 -0.128011
99.81009674 17.00579834 28.77420044 -0.208399 0.971267 0.114935
99.86309814 17.00630188 28.77350044 0.399536 0.909048 0.118329
99.82270050 17.01380157 28.77219963 0.103260 0.994554 -0.014130
99.83660126 17.01439667 28.77829933 0.334430 0.941785 0.034596
99.84700012 17.01860046 28.77129936 0.420767 0.905123 -0.060883
99.82530212 17.03209686 28.77099991 0.001133 0.984462 -0.175594
99.84059906 17.03230286 28.77210045 0.377946 0.919439 -0.108574
99.71389771 16.71579742 28.78860092 -0.046225 -0.960732 0.273602
99.75270081 16.71440125 28.78890038 0.023341 -0.999612 0.015223
99.83370209 16.71749878 28.78930092 0.160188 -0.985683 0.052617
99.71459961 16.72570038 28.78549957 -0.128447 -0.976450 0.173342
99.77040100 16.72560120 28.78089905 0.178157 -0.982812 0.048374
99.79180145 16.72740173 28.78000069 0.151462 -0.988432 0.007854
99.83260345 16.72859955 28.78720093 0.140646 -0.984521 -0.104583
99.66989899 16.73639679 28.78910065 -0.882229 -0.331403 0.334430
99.73529816 16.73049927 28.78059959 -0.090727 -0.995862 0.005337
99.75800323 16.73210144 28.78770065 0.069451 -0.995463 0.065041
99.80999756 16.73789978 28.78800011 -0.030008 -0.973465 -0.226862
99.84760284 16.73100281 28.78429985 0.209734 -0.975077 -0.072364
99.69029999 16.74340057 28.78120041 -0.601649 -0.797991 0.035061
99.71869659 16.74729919 28.78930092 -0.321317 -0.946029 -0.042245
99.76989746 16.74310303 28.78269958 0.208667 -0.958273 0.195376
99.78540039 16.74120331 28.78479958 0.229153 -0.972999 -0.027594
99.67089844 16.75710297 28.78490067 -0.817561 -0.562165 0.124762
99.68009949 16.75949860 28.78890038 -0.521154 -0.851912 0.051420
99.79750061 16.75009918 28.78779984 0.168442 -0.976966 -0.131011
99.82360077 16.75949860 28.78179932 0.093816 -0.920487 -0.379344
99.86859894 16.75019836 28.78019905 0.510712 -0.846281 -0.151595
99.87470245 16.75180054 28.78730011 0.635878 -0.765109 -0.101329
99.64309692 16.76909637 28.78560066 -0.812434 -0.582683 0.020761
99.88510132 16.78569794 28.78199959 0.931023 -0.312208 -0.189005
99.64270020 16.79019928 28.78840065 -0.888122 -0.459374 0.014647
99.65830231 16.79540253 28.78840065 -0.783452 -0.620291 0.037977
99.67659760 16.80580139 28.78240013 -0.738309 -0.592909 -0.321496
99.89939880 16.80429840 28.78389931 0.884617 -0.039286 -0.464661
99.60269928 16.81210327 28.78490067 -0.853379 -0.355963 0.380834
99.62879944 16.83519745 28.78285027 -0.999776 -0.002996 0.020974
99.64610291 16.83509827 28.78689957 -0.986979 0.146349 -0.066735
99.63860321 16.84680176 28.78380013 -0.947359 0.316641 0.047432
99.94529724 16.86799622 28.78249931 0.852010 -0.502994 -0.145179
99.62129974 16.87030029 28.78940010 -0.952849 0.289885 0.089695
99.66059875 16.87750244 28.78560066 -0.969612 0.240875 0.042795
99.64360046 16.89209747 28.78384972 -0.971766 0.225963 0.067912
99.65679932 16.90579987 28.78330040 -0.948432 0.211521 0.236084
99.91619873 16.91929626 28.78179932 -0.334155 0.080567 -0.939068
99.65059662 16.93039703 28.78400040 -0.875189 0.479764 -0.062217
99.93810272 16.93329620 28.78079987 -0.487287 0.720121 -0.493940
99.65319824 16.94869995 28.78980064 -0.633894 0.769625 -0.076529
99.67790222 16.94889832 28.78300095 -0.655442 0.755214 -0.006929
99.66880035 16.96330261 28.78170013 -0.638349 0.762186 -0.107620
99.72630310 16.96790314 28.78009987 -0.578669 0.808970 0.103490
99.69180298 16.99230194 28.78960037 -0.675831 0.715676 -0.176237
99.70539856 16.99140167 28.78669930 -0.508178 0.845976 -0.161491
99.71410370 16.99449921 28.78269958 -0.425067 0.903097 -0.061112
99.73110199 16.99939728 28.78280067 -0.247771 0.945909 -0.209442
99.74240112 16.99839783 28.78289986 -0.278008 0.925269 -0.258049
99.85700226 16.99909973 28.78960037 0.309454 0.933913 0.179012
99.72109985 17.00959778 28.78160095 -0.147640 0.986238 -0.074411
99.77200317 17.00409698 28.78300095 -0.179170 0.952430 -0.246527
99.77420044 17.01750183 28.78890038 -0.190765 0.966803 -0.170002
99.81040192 17.01450348 28.78610039 -0.088648 0.991244 -0.097858
99.88809967 17.01170349 28.78359985 0.191379 0.972103 -0.135613
99.76290131 17.02580261 28.78969955 -0.431846 0.895836 -0.104817
99.81770325 17.03099823 28.78700066 0.036174 0.983689 -0.176201
99.69259644 16.70819855 28.79450035 -0.183304 -0.878391 0.441395
99.71019745 16.70290375 28.79969978 -0.163268 -0.948571 0.271213
99.66660309 16.71540070 28.79730034 -0.936656 -0.103476 -0.334616
99.72329712 16.71959686 28.79859924 -0.077356 -0.962514 0.259968
99.74349976 16.72879791 28.79669952 0.007604 -0.993934 0.109713
99.80419922 16.72840118 28.79599953 0.124705 -0.992120 -0.012139
99.82890320 16.72869873 28.79520035 0.082327 -0.993563 -0.077816
99.67459869 16.73829651 28.79509926 -0.845746 -0.513331 0.145615
99.68070221 16.73979950 28.79710007 -0.679801 -0.666883 0.305184
99.84690094 16.73770142 28.79120064 0.257125 -0.948234 -0.186382
99.85089874 16.73329926 28.79730034 0.195092 -0.959535 -0.203055
99.70110321 16.74330139 28.79719925 -0.533520 -0.817860 0.215548
99.79530334 16.74060059 28.79990005 0.203055 -0.975895 0.079991
99.87979889 16.74569702 28.79540062 0.590636 -0.800640 -0.100627
99.68000031 16.75589752 28.79199982 -0.622978 -0.760737 0.182148
99.90200043 16.76110077 28.79829979 0.903637 -0.371059 -0.213904
99.66010284 16.77410126 28.79969978 -0.794905 -0.602288 0.073310
99.88870239 16.77629852 28.79109955 0.877096 -0.161455 -0.452366
99.64559937 16.78379822 28.79450035 -0.891899 -0.442460 -0.093517
99.90470123 16.79959869 28.79899979 0.906089 -0.033263 -0.421777
99.62310028 16.80979919 28.79299927 -0.940822 -0.279629 0.191470
99.64679718 16.80229950 28.79030037 -0.950127 -0.311741 -0.008694
99.63780212 16.82389832 28.79599953 -0.980816 -0.190484 0.041410
99.61270142 16.83170319 28.79680061 -0.974108 -0.070018 0.214967
99.62629700 16.84750366 28.79770088 -0.989318 0.092057 0.113032
99.62879944 16.85859680 28.79859924 -0.969042 0.245587 0.025406
99.64270020 16.88870239 28.79439926 -0.895041 0.398607 0.200034
99.63590240 16.90695190 28.79565048 -0.979987 0.010462 0.198787
99.66159821 16.90200043 28.79929924 -0.991050 0.093235 0.095537
99.65390015 16.91600037 28.79310036 -0.977162 0.175070 0.120438
99.63770294 16.92829895 28.79789925 -0.979868 0.199236 0.012816
99.90889740 16.92320251 28.79470062 -0.845115 -0.479660 -0.236023
99.61789703 16.93340302 28.79369926 -0.897781 0.440346 -0.009201
99.64980316 16.93720245 28.79689980 -0.688599 0.724915 -0.018158
99.67230225 16.93720245 28.79199982 -0.751398 0.635092 0.179050
99.66290283 16.95020294 28.79179955 -0.707906 0.702092 -0.077041
99.89790344 16.95169830 28.79330063 0.420928 0.254971 -0.870522
99.67639923 16.96240234 28.79780006 -0.616849 0.786726 -0.023671
99.71649933 16.96649933 28.79100037 -0.690304 0.638083 -0.341072
99.88770294 16.96769714 28.79210091 0.020871 0.624729 0.780563
99.90419769 16.96410370 28.79820061 0.579360 0.151203 -0.800924
99.64900208 16.97930145 28.79549980 -0.680660 0.719726 -0.136733
99.86849976 16.97920227 28.79290009 0.504214 0.595277 0.625631
99.91600037 16.98100281 28.79210091 -0.374710 0.561247 0.737966
99.84770203 16.99330139 28.79660034 0.314506 0.946128 0.076995
99.84200287 17.00029755 28.79450035 0.268591 0.948841 0.166013
99.76339722 17.01200104 28.79980087 -0.275654 0.959071 -0.064785
99.79630280 17.02929688 28.79789925 -0.137885 0.935162 -0.326283
99.82530212 17.02649689 28.79610062 0.461513 0.886907 0.020066
99.77799988 17.03189850 28.79870033 -0.333652 0.914294 -0.229657
99.78099823 16.70899963 28.80509949 0.224118 -0.972003 0.070579
99.73400116 16.71579742 28.80570030 0.038935 -0.993398 0.107906
99.74349976 16.71949768 28.80680084 0.015898 -0.997349 0.071012
99.76290131 16.71880341 28.80290031 0.135342 -0.989041 0.058995
99.70639801 16.72560120 28.80750084 -0.319886 -0.940921 0.111090
99.78179932 16.72260284 28.80599976 0.281853 -0.956240 0.078507
99.82050323 16.72699738 28.80120087 -0.035850 -0.996206 0.079305
99.83550262 16.72589874 28.80529976 0.272953 -0.962008 0.006066
99.72409821 16.73320007 28.80150032 -0.034987 -0.973591 0.225603
99.75789642 16.73220062 28.80470085 0.167360 -0.975218 0.144710
99.85839844 16.73819733 28.80929947 0.277027 -0.960277 0.033541
99.66519928 16.74189758 28.80100060 -0.801613 -0.587654 0.109910
99.81829834 16.74349976 28.80599976 -0.094222 -0.989908 0.105854
