70.42400360 -6.68370056 28.14749908 0.289232 0.919499 -0.266209
70.35810089 -6.66770172 28.14089966 0.334885 0.222778 -0.915545
70.32810211 -6.64289856 28.14450073 0.821556 0.541172 -0.179386
70.35379791 -6.64430237 28.14870071 0.515776 0.823702 -0.235563
69.94830322 -6.62760162 28.14590073 0.132374 -0.892454 -0.431281
70.00060272 -6.62030029 28.14819908 0.566081 -0.714616 -0.410945
70.37020111 -6.61609650 28.14249992 -0.004145 -0.764008 -0.645193
70.14579773 -6.60260010 28.14389992 0.092353 -0.728564 0.678723
70.31859589 -6.60030365 28.14800072 0.468837 0.881304 0.059120
70.06990051 -6.58580017 28.14220047 -0.733626 -0.591111 -0.335233
69.82769775 -6.57050323 28.14550018 -0.799441 -0.600616 0.012427
70.08650208 -6.57279968 28.14019966 -0.854681 -0.300293 0.423491
70.18589783 -6.57810211 28.14690018 0.539354 -0.613748 0.576551
70.14299774 -6.56279755 28.14550018 -0.144191 -0.985505 0.089375
70.30549622 -6.56469727 28.14949989 0.925476 0.362262 0.110729
70.04409790 -6.55649948 28.14529991 -0.564205 -0.807941 -0.170014
70.02320099 -6.52179718 28.14329910 0.922099 0.379846 0.073822
70.19540405 -6.52590179 28.14539909 0.986057 0.033524 0.162994
70.21549988 -6.52970123 28.14259911 0.352613 0.739351 0.573606
70.29199982 -6.52120209 28.14500046 0.640181 0.673095 -0.370285
69.82309723 -6.49629974 28.14970016 -0.965103 0.175829 -0.194063
70.02559662 -6.49770355 28.14900017 0.915611 0.396630 0.065881
70.04840088 -6.48320007 28.14699936 0.085618 0.992028 -0.092468
69.81590271 -6.46649933 28.14739990 -0.951341 0.305291 -0.041803
69.94259644 -6.42140198 28.14270020 0.187320 0.978225 0.089375
70.00029755 -6.41899872 28.14509964 0.339787 0.939865 -0.034620
69.84729767 -6.39659882 28.14990044 -0.796717 -0.363893 0.482519
69.91999817 -6.39900208 28.14839935 0.238927 0.951658 0.193031
69.83589935 -6.36009979 28.14640045 -0.665479 0.203212 0.718221
69.78369904 -6.32469940 28.14069939 -0.406789 -0.635919 0.655843
69.83319855 -6.32980347 28.14410019 0.037294 -0.127703 0.991111
69.86360168 -6.31990051 28.14620018 0.748649 0.107794 0.654145
69.77949524 -6.27159882 28.14010048 -0.935812 -0.337000 0.103382
69.67220306 -6.25579834 28.14030075 0.120085 0.992626 -0.016525
69.83300018 -6.22899628 28.14800072 0.970972 -0.050202 0.233866
69.61959839 -6.19190216 28.14929962 -0.314085 0.270259 -0.910116
69.77010345 -6.18620300 28.14220047 -0.508714 0.663175 -0.549008
69.66690063 -6.17489624 28.14539909 0.103928 0.290736 -0.951142
69.72679901 -6.15920258 28.14660072 -0.311670 0.116375 -0.943037
69.75239563 -6.15830231 28.14979935 0.023040 0.494693 -0.868762
69.62390137 -6.14659882 28.14080048 -0.127759 0.193536 -0.972739
69.79339600 -6.14640045 28.14590073 0.263455 0.525351 -0.809072
69.70929718 -6.12059784 28.14410019 -0.765343 0.260374 -0.588604
69.75070190 -6.11669922 28.14830017 0.405766 0.530617 -0.744178
69.62349701 -6.09940338 28.14539909 -0.212413 0.435225 -0.874906
69.65910339 -6.09570313 28.14450073 0.725356 -0.418030 -0.546909
69.71540070 -6.09290314 28.14690018 -0.541279 0.350619 -0.764253
69.66339874 -6.05970001 28.14119911 -0.870584 -0.491481 0.023017
69.80110168 -6.85060120 28.15229988 0.802097 -0.573356 -0.167041
69.78900146 -6.82980347 28.15399933 0.842660 -0.528643 0.102272
70.33689880 -6.81500244 28.15929985 -0.327968 -0.847120 -0.418120
69.72200012 -6.80840302 28.15730095 -0.952402 -0.189942 0.238437
69.68599701 -6.79470062 28.15399933 -0.936627 0.067184 -0.343825
70.28070068 -6.78440094 28.15769958 -0.175006 -0.981241 0.080865
69.71859741 -6.77510071 28.15600014 -0.866501 0.491722 -0.085946
70.48410034 -6.77809906 28.15889931 0.306224 -0.031505 -0.951438
69.81060028 -6.74839783 28.15929985 0.242408 0.391125 0.887840
70.42250061 -6.74269867 28.15509987 -0.202792 -0.667203 -0.716740
70.45899963 -6.74790192 28.15040016 0.239660 -0.262084 -0.934813
70.35990143 -6.73390198 28.15859985 0.291524 -0.407522 -0.865413
70.29879761 -6.72540283 28.15719986 -0.519720 -0.553359 -0.650911
70.18080139 -6.70220184 28.15719986 0.643790 -0.657030 -0.392232
70.23909760 -6.70429993 28.15060043 -0.350740 -0.906686 -0.234312
70.31590271 -6.70390320 28.15500069 -0.230014 -0.810453 -0.538758
70.39500427 -6.70330048 28.15349960 -0.060314 0.026454 -0.997829
70.50389862 -6.70860291 28.15929985 -0.097420 -0.391052 -0.915198
70.27090454 -6.68160248 28.15850067 -0.517318 -0.847706 -0.117375
70.19249725 -6.67579651 28.15600014 -0.517038 -0.806202 -0.287593
70.23819733 -6.67870331 28.15929985 -0.573736 -0.813636 -0.093937
70.22170258 -6.66210175 28.14999962 -0.465731 -0.884756 0.017348
70.39620209 -6.65859985 28.15909958 0.836293 0.373261 -0.401610
70.41459656 -6.65409851 28.15119934 0.279450 0.697828 -0.659503
69.85649872 -6.63610077 28.15839958 0.182032 -0.865761 0.466179
69.92679596 -6.63289642 28.15579987 -0.046174 -0.992176 0.115998
70.20330048 -6.63330078 28.15859985 0.900830 -0.014508 -0.433929
69.89690399 -6.61399841 28.15439987 -0.213589 -0.976906 -0.005836
70.11440277 -6.61660004 28.15080070 -0.539172 -0.718343 -0.439633
70.28869629 -6.61090088 28.15990067 0.607262 0.576815 0.546367
70.30820465 -6.61740112 28.15710068 0.561810 0.825025 0.060851
69.84639740 -6.60350037 28.15399933 -0.648414 -0.570941 -0.503573
70.40409851 -6.60970306 28.15559959 0.700848 0.672499 -0.237816
69.97909546 -6.59600067 28.15379906 0.879713 -0.467216 0.088392
70.04920197 -6.59049988 28.15019989 -0.543519 -0.802042 -0.247621
70.09569550 -6.59279633 28.15749931 -0.675109 -0.029598 0.737124
70.22350311 -6.58489990 28.15519905 -0.049121 0.958488 0.280871
70.12190247 -6.57620239 28.15349960 -0.183061 -0.883087 0.432025
70.03019714 -6.56809998 28.15780067 0.988152 0.026154 0.151236
70.17420197 -6.55229950 28.15159988 0.751849 0.274989 0.599254
69.81310272 -6.54759979 28.15320015 -0.955907 -0.193855 -0.220594
70.01770020 -6.54299927 28.15250015 0.957402 0.105223 -0.268904
70.26070404 -6.52799988 28.15390015 0.537534 0.368641 -0.758394
70.11170197 -6.51740265 28.15480042 -0.962168 -0.171956 -0.211336
70.06089783 -6.50469971 28.15730095 -0.157053 0.927030 -0.340513
70.09670258 -6.50330353 28.15259933 -0.698690 0.715358 0.009723
70.00669861 -6.48480225 28.15180016 0.732935 0.680286 -0.004157
70.10409546 -6.47949982 28.15640068 -0.385802 0.922002 -0.032695
69.96810150 -6.45590210 28.15830040 0.504225 0.828038 0.245173
70.21140289 -6.45980072 28.15480042 0.482673 -0.597035 -0.640762
69.88760376 -6.43370056 28.15749931 -0.040137 0.971813 0.232311
69.92489624 -6.42900085 28.15369987 0.275311 0.960476 0.041110
69.97630310 -6.42230225 28.15099907 0.257658 0.947473 0.189495
69.88749695 -6.41120148 28.15730095 0.163687 0.948300 0.271909
69.85620117 -6.36589813 28.15559959 0.027644 0.231965 0.972331
69.83699799 -6.30590057 28.15390015 0.012258 -0.546144 0.837602
69.78800201 -6.29799652 28.15049934 -0.327394 -0.746717 0.578988
69.81389618 -6.29209900 28.15859985 -0.086043 -0.692721 0.716055
69.84970093 -6.27760315 28.15460014 0.925412 -0.184519 0.331007
69.77290344 -6.24829865 28.15489960 -0.798397 -0.573325 -0.184012
69.66269684 -6.22609711 28.15189934 0.777972 0.394670 -0.488872
69.81110382 -6.22630310 28.15589905 -0.060047 0.853223 0.518078
69.63500214 -6.21410370 28.15259933 -0.716782 0.098613 -0.690289
69.74810028 -6.21669769 28.15640068 0.956112 -0.228665 0.183199
69.55979919 -6.20040131 28.15200043 -0.594725 -0.651685 -0.470754
69.76470184 -6.20379639 28.15029907 0.895728 0.003934 0.444585
69.63670349 -6.17970276 28.15629959 -0.578717 -0.115743 -0.807273
69.69809723 -6.16439819 28.15150070 -0.546585 0.706075 0.450226
69.81710052 -6.16680145 28.15229988 0.373669 0.803468 -0.463477
69.63330078 -6.13330078 28.15480042 -0.579243 -0.131848 -0.804421
69.60040283 -6.08910370 28.15110016 -0.169857 0.386817 -0.906378
69.63299561 -6.03980255 28.15679932 -0.615946 -0.278529 -0.736907
69.73010254 -6.86949921 28.16600037 -0.047110 -0.903172 -0.426685
69.74250031 -6.84619904 28.16889954 0.163237 -0.888414 -0.429039
69.72740173 -6.82620239 28.16659927 -0.819387 -0.573161 0.009575
69.77759552 -6.81199646 28.16869926 0.955448 0.031224 -0.293504
69.78939819 -6.79139709 28.16760063 0.940814 0.162965 0.297171
70.32889557 -6.78559875 28.16300011 -0.174780 -0.939959 -0.293135
70.36139679 -6.77899933 28.16909981 0.191397 -0.341678 -0.920121
70.44930267 -6.77169800 28.16659927 -0.054063 -0.505976 -0.860852
69.75450134 -6.75319672 28.16600037 -0.178994 0.958610 0.221422
69.83129883 -6.73989868 28.16230011 0.538450 0.592464 -0.599215
70.39319611 -6.73400116 28.16279984 0.269588 -0.334407 -0.903047
70.44190216 -6.73970032 28.16020012 0.433374 -0.572850 -0.695723
70.33560181 -6.71250153 28.16830063 -0.192728 -0.856072 -0.479580
70.43180084 -6.70339966 28.16580009 -0.149003 -0.028436 -0.988428
70.16989899 -6.67939758 28.16589928 0.882062 -0.446083 -0.151582
70.46299744 -6.67410278 28.16069984 0.337181 0.916845 -0.213787
70.42449951 -6.66770172 28.16740036 0.220897 0.922065 -0.317806
70.50379944 -6.66940308 28.16589928 0.641331 0.611190 -0.463834
70.20059967 -6.65509796 28.16679955 0.520038 -0.644578 -0.560429
70.36350250 -6.65209961 28.16480064 0.293143 0.784357 -0.546673
70.40760040 -6.63939667 28.16500092 0.609443 0.756712 -0.236570
69.96960449 -6.62570190 28.16200066 0.268149 -0.929301 -0.253962
70.34390259 -6.62310028 28.16340065 0.704483 0.592294 -0.391013
69.86080170 -6.61309814 28.16819954 -0.412721 -0.830186 -0.374770
70.08300018 -6.61380005 28.16860008 -0.744904 -0.664837 -0.055761
70.37449646 -6.61540222 28.16650009 0.769632 0.623178 -0.138982
70.24589539 -6.59780121 28.16049957 0.311531 0.920237 0.236879
69.85790253 -6.58070374 28.16080093 -0.459639 -0.877493 -0.136883
70.27809906 -6.58679962 28.16160011 0.017292 0.983333 0.180989
70.24200439 -6.57299805 28.16020012 -0.285123 0.600511 0.747055
70.13230133 -6.56459808 28.16839981 0.013964 -0.091302 0.995725
70.20320129 -6.56800079 28.16589928 0.350800 0.703232 0.618388
70.04450226 -6.54229736 28.16860008 0.917391 0.068703 0.392013
70.10160065 -6.54620361 28.16699982 -0.247762 -0.048073 0.967628
69.77369690 -6.53230286 28.16580009 -0.960997 -0.275099 -0.028373
70.06410217 -6.53579712 28.16469955 -0.413293 0.465158 -0.782826
69.80020142 -6.52729797 28.16090012 -0.973868 -0.137680 -0.180627
70.01599884 -6.52359772 28.16930008 0.940073 0.297804 0.166057
70.01360321 -6.49189758 28.16990089 0.892310 0.445466 0.073095
70.17359924 -6.49919891 28.16300011 0.423392 0.049732 -0.904581
69.79889679 -6.48069763 28.16239929 -0.926530 0.362201 -0.101742
70.01270294 -6.47000122 28.16970062 0.701796 0.695733 -0.153092
69.82559967 -6.46479797 28.16939926 -0.731168 0.619173 -0.286388
69.98960114 -6.46350098 28.16049957 0.815619 0.567577 0.112348
70.12010193 -6.46920013 28.16939926 -0.993617 -0.034339 -0.107448
69.94470215 -6.43039703 28.16580009 0.338330 0.939805 0.047962
69.81940460 -6.40119934 28.16570091 -0.858367 0.468881 0.208225
69.87360382 -6.29080200 28.16290092 0.978424 -0.036854 0.203293
69.76419830 -6.28099823 28.16010094 -0.398289 -0.679241 0.616440
69.69160461 -6.27510071 28.16559982 0.437643 0.898179 -0.041744
69.78700256 -6.27600098 28.16020012 -0.521428 -0.636176 0.568677
69.80649567 -6.27300262 28.16530037 -0.058708 -0.748879 0.660102
69.68669891 -6.24140167 28.16620064 0.592194 0.605691 -0.531456
69.79280090 -6.24970245 28.16699982 0.095828 -0.516328 0.851012
69.76380157 -6.23020172 28.16760063 0.830325 0.114879 0.545310
69.67729950 -6.21540070 28.16589928 0.510592 0.062950 -0.857515
69.85260010 -6.21510315 28.16500092 0.975239 0.199509 -0.095417
69.64969635 -6.19629669 28.16150093 0.096621 -0.316336 -0.943714
69.82839966 -6.19380188 28.16760063 0.988472 0.111659 -0.102256
69.58169556 -6.18260193 28.16799927 -0.397047 0.390720 -0.830477
69.78859711 -6.18720245 28.16530037 -0.453036 0.805219 -0.382599
69.85459900 -6.18659973 28.16370010 0.977295 0.153521 -0.146033
69.75170135 -6.17030334 28.16589928 0.903994 -0.344309 0.253470
69.79869843 -6.16770172 28.16519928 0.021512 0.942749 -0.332809
69.55770111 -6.15049744 28.16749954 -0.698711 0.241316 -0.673476
69.78510284 -6.14070129 28.16880035 0.264134 0.801779 -0.536082
69.82679749 -6.14849854 28.16819954 0.458859 0.723904 -0.515181
69.60299683 -6.13230133 28.16760063 -0.295118 0.373816 -0.879299
69.81269836 -6.13390350 28.16489983 0.542152 0.676431 -0.498511
69.58100128 -6.12380219 28.16430092 -0.605730 0.097793 -0.789638
69.62270355 -6.11489868 28.16650009 0.162279 0.152215 -0.974934
69.72779846 -6.10489655 28.16710091 0.272000 0.615578 -0.739648
69.66049957 -6.87930298 28.17970085 0.482286 -0.868688 -0.113058
69.79399872 -6.86190033 28.17639923 0.716682 -0.657089 -0.233667
69.68299866 -6.85330200 28.17060089 0.342195 -0.938776 0.040030
70.42819977 -6.82420349 28.17000008 -0.880802 -0.402268 0.249735
69.80369568 -6.80819702 28.17889977 0.953933 -0.001225 0.300017
70.39920044 -6.79170227 28.17350006 -0.101524 -0.172469 -0.979769
69.74880219 -6.78160095 28.17720032 0.890578 0.251265 -0.379127
70.30599976 -6.77390289 28.17869949 -0.605251 -0.716186 -0.347489
70.42479706 -6.77050018 28.17740059 -0.510309 -0.415139 -0.753157
70.52649689 -6.77940369 28.17119980 0.170930 -0.318236 -0.932474
69.71469879 -6.76889801 28.17790031 -0.398886 0.902140 -0.164415
70.49729919 -6.76699829 28.17790031 0.348424 0.173507 -0.921138
70.29330444 -6.75589752 28.17840004 -0.982556 -0.132712 0.130277
70.51429749 -6.75279999 28.17180061 -0.018159 -0.080114 -0.996620
70.40869904 -6.74530029 28.17110062 -0.245923 -0.397948 -0.883832
70.45590210 -6.74120331 28.17729950 0.144028 0.367760 -0.918700
70.54700470 -6.73899841 28.17090034 0.392856 0.167142 -0.904283
70.27709961 -6.72119904 28.17600060 -0.459289 -0.887417 0.039290
70.25129700 -6.71040344 28.17169952 -0.507409 -0.857931 0.080564
70.46240234 -6.71230316 28.17510033 0.456187 0.014630 -0.889764
70.54420471 -6.71589661 28.17060089 0.633174 0.254217 -0.731071
70.39009857 -6.70490265 28.17950058 0.547070 -0.247818 -0.799563
70.50690460 -6.69100189 28.17110062 0.563721 0.580650 -0.587421
70.26670074 -6.68990326 28.17959976 -0.556581 -0.819370 0.137300
70.38980103 -6.68289948 28.17650032 0.691549 0.366307 -0.622558
70.48030090 -6.67710114 28.17779922 0.507781 0.861485 0.001340
70.21890259 -6.66699982 28.17200089 -0.069634 -0.828497 0.555647
70.46019745 -6.66609955 28.17959976 0.440506 0.858149 -0.263694
70.23120117 -6.65090179 28.17499924 0.084358 -0.897510 0.432851
70.31439972 -6.65119934 28.17749977 0.507482 0.838776 0.197271
69.87490082 -6.64080048 28.17760086 -0.160655 -0.984159 -0.074972
70.34259796 -6.64160156 28.17259979 0.662540 0.744083 -0.085912
70.09880066 -6.63680267 28.17600060 -0.966744 -0.167396 0.193349
70.27079773 -6.62570190 28.17189980 -0.069806 0.936458 0.343763
69.94549561 -6.61940002 28.17880058 0.003312 -0.990424 -0.138019
70.00759888 -6.59410095 28.17490005 0.654066 -0.722751 0.223225
70.09709930 -6.59870148 28.17659950 -0.343695 0.089601 0.934797
70.18740082 -6.59339905 28.17609978 -0.034280 -0.514193 0.856989
70.06729889 -6.57620239 28.17810059 -0.509581 -0.367222 -0.778123
70.16649628 -6.57360077 28.17169952 -0.110889 -0.993614 0.020860
70.29129791 -6.55919647 28.17440033 -0.618287 0.282783 0.733318
69.80020142 -6.54959869 28.17420006 -0.839043 -0.432802 -0.329680
69.80930328 -6.51180267 28.17280006 -0.945940 0.223786 -0.234769
70.09429932 -6.51989746 28.17370033 -0.311648 0.223419 0.923558
70.27819824 -6.50710297 28.17480087 0.929440 0.346316 0.127302
70.19470215 -6.49510193 28.17510033 -0.465990 0.373112 -0.802272
69.82180023 -6.48490143 28.17160034 -0.936666 0.263830 -0.230328
70.09310150 -6.48629761 28.17239952 0.333393 0.854418 -0.398521
69.95890045 -6.46379852 28.17830086 0.575556 0.808134 0.125121
70.04720306 -6.46099854 28.17480087 0.163115 0.815573 -0.555188
69.81110382 -6.45130157 28.17720032 -0.928408 0.363057 0.079042
69.86309814 -6.44550323 28.17849922 -0.441842 0.895845 -0.047292
69.83000183 -6.43450165 28.17919922 -0.836272 0.541790 -0.084342
69.92759705 -6.43520355 28.17580032 0.320307 0.939296 -0.122987
69.97090149 -6.43969727 28.17210007 0.454467 0.875324 0.165128
69.88019562 -6.42030334 28.17530060 -0.101247 0.950668 0.293221
69.99299622 -6.42800140 28.17309952 0.579674 0.807456 0.109510
69.72480011 -6.26200104 28.17670059 -0.148021 0.987196 0.059442
69.75749969 -6.25189972 28.17280006 -0.438838 -0.857799 -0.267584
69.84870148 -6.25550079 28.17239952 0.875575 -0.282785 0.391665
69.73880005 -6.24120331 28.17959976 0.370620 -0.054076 0.927209
69.64319611 -6.23819733 28.17690086 0.476157 0.728337 -0.492747
69.83619690 -6.22660065 28.17499924 0.985223 -0.144499 -0.091954
69.60720062 -6.19470215 28.17420006 -0.237060 0.742578 -0.626403
69.73040009 -6.19090271 28.17300034 0.671836 0.709247 0.213553
69.54159546 -6.18669891 28.17569923 -0.738455 -0.596877 -0.313723
69.82589722 -6.17510223 28.17440033 0.760200 0.546241 -0.351734
69.58619690 -6.16179657 28.17980003 -0.378984 0.040652 -0.924510
69.61899567 -6.14810181 28.17679977 -0.218995 0.361125 -0.906438
69.72740173 -6.14900208 28.17149925 0.579627 0.482183 0.656911
69.73680115 -6.12640381 28.17440033 0.729720 0.621140 -0.285820
69.75949860 -6.11190033 28.17440033 0.776891 0.421834 -0.467437
69.58889771 -6.07119751 28.17180061 -0.342170 0.336087 -0.877476
69.74670410 -6.06199646 28.17079926 0.685432 0.616063 -0.388136
69.70680237 -6.05879974 28.17950058 0.216878 0.659995 -0.719285
69.63510132 -6.04879761 28.17889977 0.371726 0.190887 -0.908505
69.73040009 -6.85130310 28.18880081 -0.260020 -0.913701 -0.312314
69.76180267 -6.85970306 28.18709946 0.835959 -0.204077 0.509436
70.45330048 -6.85430145 28.18449974 -0.895595 -0.072913 0.438855
69.76100159 -6.83419800 28.18689919 0.900895 -0.387341 0.195847
69.74939728 -6.81420135 28.18860054 0.960458 -0.101847 0.259130
69.71269989 -6.79380035 28.18409920 0.419665 0.834614 -0.356793
70.27639771 -6.77960205 28.18560028 -0.198135 -0.970221 0.139333
70.54319763 -6.76840210 28.18820000 0.260580 -0.343023 -0.902460
70.56909943 -6.76629639 28.18330002 0.349919 0.034863 -0.936131
70.32640076 -6.75379944 28.18160057 0.527732 -0.314088 0.789207
70.39700317 -6.75849915 28.18510056 -0.238113 -0.321813 -0.916373
70.49639893 -6.73780060 28.18950081 0.210284 0.226564 -0.951025
70.55100250 -6.73030090 28.18880081 0.441836 0.422415 -0.791421
70.31030273 -6.71179962 28.18210030 -0.514433 -0.845664 0.142165
70.49690247 -6.71620178 28.18230057 0.347347 0.154842 -0.924864
70.44740295 -6.70739746 28.18989944 0.475526 0.229407 -0.849263
70.51950073 -6.70890045 28.18540001 0.642749 0.669051 -0.373156
70.17749786 -6.69689941 28.18210030 -0.209643 -0.638246 0.740738
70.21779633 -6.69129944 28.18530083 -0.242305 -0.589348 0.770686
70.40699768 -6.66079712 28.18820000 0.238422 0.851939 -0.466213
70.17590332 -6.65160370 28.18260002 0.567933 -0.470765 -0.675154
70.43160248 -6.65470123 28.18129921 0.388765 0.875855 -0.285901
69.94960022 -6.64640045 28.18610001 -0.349756 -0.850295 -0.393281
70.21250153 -6.64959717 28.18680000 -0.236675 -0.631656 0.738238
70.36090088 -6.64990234 28.18479919 0.282127 0.846381 -0.451712
70.00990295 -6.63870239 28.18740082 0.617098 -0.666998 -0.417497
70.38279724 -6.63950348 28.18379974 0.365450 0.926436 -0.090351
69.82440186 -6.62300110 28.18009949 -0.830477 -0.397047 -0.390720
69.90599823 -6.62079620 28.18659973 0.028273 -0.989554 -0.141365
70.32189941 -6.62020111 28.18919945 0.252472 0.967198 -0.028052
70.43420410 -6.62339783 28.18199921 0.589196 0.791119 -0.164251
70.26000214 -6.59570313 28.18160057 -0.541931 0.592578 0.595955
70.32320404 -6.59809875 28.18000031 0.694456 0.717365 -0.055843
70.34210205 -6.59420013 28.18709946 0.282295 0.790112 0.544089
70.30459595 -6.57070160 28.18860054 0.301976 0.887901 0.347048
70.04949951 -6.56490326 28.18589973 0.963287 -0.103896 0.247556
70.11389923 -6.56179810 28.18330002 -0.124373 0.077879 0.989175
70.02380371 -6.55989838 28.18670082 0.936191 0.132184 0.325691
69.81729889 -6.53739929 28.18610001 -0.982764 -0.075413 -0.168782
69.79119873 -6.51129913 28.18670082 -0.987189 0.155508 -0.035709
70.08309937 -6.50789642 28.18849945 -0.569846 0.456211 -0.683481
70.04070282 -6.49340057 28.18910027 0.730201 0.681994 0.041118
69.99459839 -6.48249817 28.18969917 0.744925 0.664548 0.058848
69.98130035 -6.46720123 28.18849945 0.704654 0.698695 0.123650
70.00620270 -6.44670105 28.18140030 0.672924 0.713145 0.196463
69.90270233 -6.42960358 28.18260002 -0.091454 0.994974 -0.040769
69.95639801 -6.42630005 28.18190002 0.320777 0.944000 -0.077248
69.90090179 -6.40820313 28.18630028 -0.093574 0.993234 0.068771
69.84569550 -6.27500153 28.18560028 0.294401 -0.686937 0.664414
69.86679840 -6.27459717 28.18169975 0.915955 -0.339720 0.213580
69.70479584 -6.26049805 28.18250084 0.198798 0.973985 0.108776
69.67449951 -6.25009918 28.18020058 0.755690 0.490133 -0.434399
69.77729797 -6.25689697 28.18499947 -0.112104 -0.912058 0.394441
69.81479645 -6.23770142 28.18600082 -0.121756 -0.156191 0.980194
69.68510437 -6.22200012 28.18700027 0.875568 0.033937 -0.481902
69.74649811 -6.21240234 28.18930054 0.710859 0.461142 0.531063
69.84829712 -6.21399689 28.18600082 0.975961 0.020160 -0.217012
69.70429993 -6.20379639 28.18600082 0.665605 -0.012506 -0.746200
69.84370422 -6.18260193 28.18160057 0.910198 0.321846 -0.260681
69.68620300 -6.16790009 28.18950081 0.642827 0.354945 -0.678813
69.72809601 -6.16490173 28.18770027 0.565886 0.780261 0.266392
69.84220123 -6.15969849 28.18939972 0.864275 0.382246 -0.326981
69.87200165 -6.15619659 28.18750000 0.741346 0.285378 -0.607425
69.64410400 -6.14849854 28.18300056 0.449468 0.535713 -0.714836
69.56140137 -6.13590240 28.18729973 -0.476388 0.219290 -0.851449
69.65869904 -6.12860107 28.18289948 0.376478 -0.404832 -0.833292
69.69329834 -6.11949921 28.18700027 0.753028 0.126747 0.645666
69.58619690 -6.10600281 28.18020058 -0.495574 0.271867 -0.824921
69.64969635 -6.10700226 28.18160057 0.310919 0.233548 -0.921295
69.71699524 -6.09719849 28.18889999 -0.335899 0.779478 -0.528759
69.56449890 -6.08309937 28.18280029 -0.872216 -0.009379 -0.489031
69.62020111 -6.08670044 28.18519974 -0.632906 0.774168 0.009694
69.65290070 -6.07299805 28.18029976 0.629050 0.142625 -0.764169
69.71630096 -6.07759857 28.18269920 0.194233 0.588818 -0.784581
69.56890106 -6.04350281 28.18540001 -0.862456 0.289528 -0.415143
69.58879852 -6.03189850 28.18540001 -0.410123 0.323455 -0.852746
69.62739563 -6.03109741 28.18470001 -0.080628 -0.056329 -0.995151
69.63680267 -6.00849915 28.18149948 0.074799 0.515128 -0.853843
69.73080444 -6.88169861 28.19820023 0.291844 -0.934180 -0.205268
69.68939972 -6.85949707 28.19370079 0.057166 -0.956574 -0.285829
69.68930054 -6.82399750 28.19930077 -0.410558 0.019675 -0.911622
70.56310272 -6.81259918 28.19370079 0.086191 -0.682222 -0.726047
69.77639771 -6.80989838 28.19969940 0.758097 -0.026624 0.651599
70.53199768 -6.80290222 28.19039917 -0.009685 -0.767845 -0.640563
70.51499939 -6.79109955 28.19219971 -0.076730 -0.874720 -0.478515
70.58979797 -6.79319763 28.19669914 0.333937 -0.129486 -0.933659
69.76940155 -6.78600311 28.19239998 0.573235 0.542798 0.613818
70.31040192 -6.78630066 28.19490051 -0.608547 -0.785365 0.113458
70.48650360 -6.78910065 28.19400024 0.160323 -0.813601 -0.558883
69.67890167 -6.77600098 28.19770050 -0.884451 0.444383 -0.142375
69.73709869 -6.77809906 28.19510078 0.265856 0.952539 0.148291
69.75519562 -6.76190186 28.19210052 0.112009 0.824795 0.554227
70.52159882 -6.76429749 28.19400024 0.257125 -0.186382 -0.948234
70.58899689 -6.75099945 28.19630051 0.585814 0.225313 -0.778496
70.36360168 -6.74890137 28.19079971 -0.101582 -0.661019 -0.743462
70.42790222 -6.74929810 28.19619942 -0.468538 -0.341477 -0.814780
70.52780151 -6.73670197 28.19370079 0.596206 0.354456 -0.720347
70.29199982 -6.70549774 28.19589996 -0.507498 -0.833637 0.217934
70.48259735 -6.70500183 28.19409943 0.750252 0.633648 -0.188714
70.37729645 -6.67369843 28.19409943 0.443742 0.778580 -0.443742
70.43240356 -6.67639923 28.19949913 0.056119 0.888315 -0.455792
70.20220184 -6.66310120 28.19890022 0.561572 -0.477756 -0.675563
70.24290466 -6.66560364 28.19919968 -0.458542 -0.474978 0.751089
70.48270416 -6.65859985 28.19960022 0.311133 0.946528 -0.085332
70.41839600 -6.64510345 28.19910049 0.378742 0.874605 -0.302689
69.84799957 -6.63030243 28.19829941 -0.471188 -0.881271 -0.036663
70.25530243 -6.63289642 28.19190025 -0.606140 0.606140 0.514965
70.27349854 -6.62239838 28.19589996 -0.234359 0.696786 0.677912
70.36479950 -6.62240219 28.19250107 0.387636 0.921129 0.035479
70.39189911 -6.62400055 28.19669914 0.346709 0.932203 -0.103878
69.95249939 -6.61000061 28.19879913 0.502004 -0.843667 0.190312
69.98410034 -6.61479950 28.19099998 0.472133 -0.881404 0.014712
70.01360321 -6.61979675 28.19330025 -0.429324 -0.772131 0.468502
70.02249908 -6.59140015 28.19799995 0.783378 -0.475217 0.400609
70.29149628 -6.59680176 28.19079971 -0.193031 0.718076 0.668660
69.84230042 -6.58779907 28.19379997 -0.832479 -0.523487 -0.181495
69.80380249 -6.56839752 28.19639969 -0.801779 -0.536082 -0.264134
70.15640259 -6.56900024 28.19059944 -0.143698 -0.958423 -0.246527
70.01779938 -6.50779724 28.19809914 0.971308 0.237799 -0.003549
69.78910065 -6.49120331 28.19249916 -0.934050 0.347770 -0.081280
70.11219788 -6.49040222 28.19750023 -0.893975 0.403966 -0.193962
69.81130219 -6.48529816 28.19960022 -0.945350 0.325940 -0.008742
69.82810211 -6.45570374 28.19739914 -0.741276 0.665248 0.089187
69.97069550 -6.43949890 28.19510078 0.590636 0.800640 0.100627
69.85469818 -6.42680359 28.19720078 -0.227582 0.969423 0.091787
70.00399780 -6.42649841 28.19919968 0.527595 0.793769 0.302614
69.80629730 -6.41970062 28.19280052 -0.995400 -0.018373 -0.094028
69.93920135 -6.41799927 28.19869995 0.322243 0.930459 -0.174374
69.71170044 -6.28800201 28.19090080 -0.277539 0.804392 0.525285
69.80559540 -6.28269958 28.19140053 -0.130116 -0.659551 0.740312
69.85559845 -6.26260376 28.19949913 0.330145 -0.309231 0.891841
69.75329590 -6.24720001 28.19770050 -0.880162 0.047909 -0.472249
69.69799805 -6.23860168 28.19230080 0.850476 0.006761 -0.525970
69.86859894 -6.22709656 28.19319916 0.997768 0.009443 -0.066098
69.58429718 -6.20899963 28.19519997 0.058769 -0.979888 -0.190700
69.73629761 -6.19629669 28.19709969 0.941947 0.116571 0.314876
69.77000427 -6.19149780 28.19420052 0.726400 -0.672258 -0.142874
69.56980133 -6.18620300 28.19790077 -0.714473 -0.504628 -0.484643
69.59539795 -6.18180084 28.19799995 0.072010 -0.985710 -0.152283
69.83139801 -6.18550110 28.19860077 0.977134 -0.001162 -0.212622
69.76589966 -6.16089630 28.19589996 0.675591 -0.049991 -0.735580
69.52849579 -6.15679932 28.19540024 -0.839162 0.063466 -0.540166
69.61319733 -6.15019989 28.19779968 0.615648 -0.082569 -0.783684
69.67929840 -6.13300323 28.19610023 0.681643 -0.009718 -0.731621
69.83010101 -6.13890076 28.19610023 0.312563 0.860702 -0.401866
69.81660461 -6.12139893 28.19779968 0.415417 0.890596 -0.185116
69.55470276 -6.11039734 28.19799995 -0.423264 0.518787 -0.742771
69.66709900 -6.11000061 28.19269943 0.455371 -0.311405 -0.834065
69.76629639 -6.11319733 28.19739914 0.558553 0.769811 -0.308885
69.60150146 -6.10199738 28.19519997 -0.328532 0.811014 -0.484069
69.69750214 -6.10009766 28.19879913 -0.003838 -0.379975 -0.924989
69.74510193 -6.09110260 28.19899940 0.624429 0.657732 -0.421281
69.62300110 -6.06700134 28.19199944 0.391213 -0.030093 -0.919808
69.73069763 -6.06109619 28.19759941 0.549857 0.603997 -0.576927
69.65950012 -6.05909729 28.19319916 0.354578 0.001262 -0.935026
69.67950439 -6.04399872 28.19409943 0.234489 0.379017 -0.895188
69.64810181 -6.03559875 28.19289970 0.608019 0.296790 -0.736361
69.61389923 -6.00050354 28.19029999 -0.161936 0.612937 -0.773360
69.62870026 -5.97920227 28.19109917 -0.103536 0.477967 -0.872254
69.69499969 -5.97709656 28.19849968 0.495991 0.268986 -0.825615
69.75709534 -6.89330292 28.20739937 0.601926 -0.769041 -0.215084
69.77000427 -6.87439728 28.20929909 0.682544 0.133509 0.718546
69.74119568 -6.85720062 28.20599937 0.937672 -0.346670 -0.024305
69.67379761 -6.84799957 28.20240021 -0.959035 0.202949 -0.197644
69.73480225 -6.83399963 28.20669937 0.898214 0.180800 0.400653
70.58940125 -6.82420349 28.20299911 0.086029 -0.721765 -0.686771
70.35099792 -6.81839752 28.20649910 -0.065333 -0.972599 -0.223119
69.68820190 -6.80549622 28.20809937 -0.739973 0.605723 0.292473
70.43930054 -6.80249786 28.20190048 -0.316035 -0.758805 -0.569505
69.75869751 -6.79804993 28.20499992 0.374963 0.524299 0.764535
70.33450317 -6.79810333 28.20509911 -0.705277 -0.696293 0.133269
70.55619812 -6.79440308 28.20149994 0.154694 -0.587236 -0.794496
70.63459778 -6.78340149 28.20789909 0.409241 0.072059 -0.909576
69.77469635 -6.76830292 28.20229912 0.528771 0.784370 0.324291
70.28630066 -6.76709747 28.20750046 0.004134 -0.624185 0.781265
70.55809784 -6.76940155 28.20730019 0.489875 -0.196250 -0.849417
69.69979858 -6.75309753 28.20159912 -0.210818 0.966143 0.148737
70.33820343 -6.72209930 28.20840073 -0.582048 -0.737693 0.342095
70.41200256 -6.72260284 28.20380020 0.242703 0.332808 -0.911227
70.50039673 -6.71240234 28.20829964 0.534128 0.809707 -0.243067
70.54779816 -6.70480347 28.20549965 0.351373 0.855989 -0.379236
70.46839905 -6.69380188 28.20590019 0.549404 0.818867 -0.166169
70.49500275 -6.68150330 28.20800018 0.500145 0.865374 -0.031344
69.96409607 -6.66179657 28.20339966 -0.401459 -0.692227 -0.599710
70.45210266 -6.66259766 28.20450020 0.522358 0.852411 0.023186
69.88849640 -6.65650177 28.20680046 0.049647 -0.998230 0.032746
70.38059998 -6.64170074 28.20980072 0.273078 0.953794 0.125326
70.23739624 -6.63459778 28.20980072 -0.589632 0.579495 0.562600
69.88529968 -6.62180328 28.20339966 0.019668 -0.998905 0.042441
70.31150055 -6.62999725 28.20820045 0.744670 0.583136 0.324683
69.92489624 -6.61329651 28.20059967 0.003134 -0.997687 0.067905
70.04019928 -6.60610199 28.20730019 0.890497 -0.401827 0.213425
69.95809937 -6.59079742 28.20859909 0.338538 -0.914774 0.220410
70.36799622 -6.59770203 28.20030022 0.444274 0.396158 -0.803542
69.81819916 -6.58159637 28.20159912 -0.877744 -0.469163 -0.097214
70.01499939 -6.56289673 28.20969963 0.963215 -0.166433 0.210990
70.03109741 -6.54910278 28.20459938 0.963293 -0.064220 0.260656
70.00440216 -6.52210236 28.20919991 0.947603 0.214681 0.236559
70.04479980 -6.52970123 28.20549965 0.929708 0.098503 0.354881
70.01715088 -6.48625183 28.20285034 0.864649 0.493883 0.091984
70.03039551 -6.46060181 28.20070076 0.740862 0.671622 -0.006924
69.98780060 -6.45330048 28.20639992 0.615949 0.787124 0.032271
69.90940094 -6.42510223 28.20560074 0.066243 0.993650 -0.090944
69.96540070 -6.42369843 28.20989990 0.442391 0.880403 -0.170824
69.93489838 -6.39810181 28.20540047 0.071625 0.992515 -0.098910
69.71970367 -6.25769806 28.20660019 0.291810 0.847639 -0.443119
69.81120300 -6.25990295 28.20619965 -0.044034 -0.731526 0.680390
69.77659607 -6.24649811 28.20289993 -0.237277 -0.859942 0.451885
69.83789825 -6.23110199 28.20409966 0.995480 -0.001067 -0.094960
69.54889679 -6.18879700 28.20280075 -0.799529 -0.499506 -0.333536
69.73279572 -6.17590332 28.20590019 0.517871 0.323470 0.791945
69.56060028 -6.14209747 28.20739937 -0.591585 0.138583 -0.794243
69.81459808 -6.14980316 28.20910072 0.427958 0.875302 -0.225163
69.85860443 -6.14080048 28.20330048 0.713265 0.625926 -0.315389
69.51170349 -6.13420105 28.20299911 -0.667848 -0.111061 -0.735965
69.76059723 -6.13210297 28.20260048 0.750730 0.092195 -0.654145
69.62180328 -6.12460327 28.20059967 0.203145 0.931666 -0.301215
69.51509857 -6.10230255 28.20669937 0.039716 -0.063331 -0.997202
69.54209900 -6.09809875 28.20980072 -0.359992 0.439285 -0.823064
69.58509827 -6.09680176 28.20809937 -0.339442 0.864732 -0.370160
69.66139984 -6.08619690 28.20750046 -0.073602 -0.091719 -0.993061
69.68530273 -6.08290100 28.20159912 0.035799 -0.011251 -0.999296
69.71050262 -6.07029724 28.20960045 0.247325 0.412208 -0.876878
69.69390106 -6.05719757 28.20639992 0.213502 0.449398 -0.867443
69.71050262 -6.04419708 28.20730019 0.255217 0.708583 -0.657856
69.58750153 -6.02420044 28.20439911 -0.325857 0.944084 0.050231
69.60870361 -6.02970123 28.20050049 -0.905587 0.346727 -0.244318
69.65419769 -6.00060272 28.20750046 0.239633 0.612396 -0.753357
69.66629791 -5.98229980 28.20439911 0.454733 0.093745 -0.885680
69.68699646 -5.90499878 28.20579910 0.189695 -0.232747 -0.953858
69.67289734 -5.89029694 28.20750046 -0.849098 -0.304685 -0.431509
69.66329956 -5.85849762 28.20009995 0.551689 0.387983 -0.738314
69.68070221 -6.88130188 28.21980095 0.014383 -0.908744 -0.417107
69.65119934 -6.86100006 28.21339989 -0.947568 0.186251 -0.259664
70.43650055 -6.85030365 28.21829987 -0.855808 -0.345109 -0.385346
70.42669678 -6.81620026 28.21890068 -0.683216 -0.644082 0.344054
69.78749847 -6.80500031 28.21570015 0.641401 -0.711780 -0.286311
70.52590179 -6.80639648 28.21339989 -0.148017 -0.799892 -0.581604
69.74019623 -6.79599762 28.21929932 0.431046 0.523531 0.734925
69.80680084 -6.79260254 28.21870041 0.487303 0.850157 0.199420
70.61229706 -6.79869843 28.21990013 0.409895 -0.038469 -0.911321
70.60119629 -6.77739716 28.21260071 0.483305 0.147474 -0.862941
70.58350372 -6.75900269 28.21730042 0.571260 0.288017 -0.768575
70.61969757 -6.75250244 28.21850014 0.478234 0.455226 -0.751041
70.36129761 -6.74530029 28.21680069 -0.527917 -0.834257 0.159119
70.49399567 -6.74140167 28.21360016 -0.949523 0.055101 -0.308819
70.65779877 -6.74720001 28.21969986 0.219160 -0.298341 -0.928957
70.53120422 -6.72350311 28.21960068 0.261264 0.888298 -0.377713
70.56259918 -6.72260284 28.21080017 0.700153 0.519684 -0.489606
70.28919983 -6.71769714 28.21199989 -0.412791 -0.261585 0.872455
70.28029633 -6.69259644 28.21069908 -0.599193 -0.481704 0.639475
70.51740265 -6.69439697 28.21719933 0.547412 0.772156 -0.322668
70.45410156 -6.68250275 28.21669960 0.520802 0.847918 -0.098995
70.25609589 -6.67700195 28.21839905 -0.353968 -0.282279 0.891642
70.31130219 -6.67990112 28.21579933 -0.048350 -0.109068 0.992858
70.41870117 -6.67539978 28.21940041 0.320005 0.841380 -0.435519
70.33959961 -6.66660309 28.21479988 0.090440 0.927347 0.363110
69.89099884 -6.63819885 28.21470070 -0.073125 -0.932007 0.354987
70.33940125 -6.63469696 28.21349907 -0.210366 0.866825 0.452062
69.93589783 -6.62860107 28.21780014 -0.234385 -0.458186 0.857397
69.84300232 -6.61299896 28.21809959 -0.539322 -0.842099 0.001352
69.90390015 -6.61940002 28.21249962 0.269280 -0.948570 0.166440
70.28769684 -6.61309814 28.21689987 -0.152034 0.521049 0.839877
69.98270416 -6.59040070 28.21369934 0.358161 -0.893172 0.271964
69.79380035 -6.55069733 28.21910095 -0.979467 -0.194937 -0.051425
70.03869629 -6.51090240 28.21529961 0.979461 0.154392 0.129689
69.99629974 -6.48339844 28.21069908 0.679464 0.721462 0.133493
69.98020172 -6.47109985 28.21850014 0.629798 0.731327 0.261755
69.81690216 -6.46610260 28.21139908 -0.899132 0.436949 0.025234
70.00499725 -6.46350098 28.21960068 0.661823 0.712128 0.234232
69.85230255 -6.44709778 28.21339989 -0.515989 0.856352 0.020422
69.92539978 -6.43720245 28.21980095 0.205065 0.976790 -0.061884
69.94820404 -6.43569946 28.21689987 0.487952 0.852050 -0.189510
69.81850433 -6.42949677 28.21199989 -0.570359 0.654483 0.496330
69.88330078 -6.42140198 28.21439934 -0.298841 0.949181 -0.098736
69.94720459 -6.41380310 28.21969986 0.184487 0.976914 -0.107721
69.73989868 -6.27079773 28.21590042 -0.401035 0.873198 0.276941
69.75440216 -6.25450134 28.21780014 -0.708583 0.657856 -0.255217
69.85219574 -6.24430084 28.21629906 0.915232 0.303143 -0.265432
69.74169922 -6.22350311 28.21139908 -0.465346 -0.369399 0.804362
69.79910278 -6.21299744 28.21369934 0.132907 -0.646615 0.751149
69.72380066 -6.20279694 28.21209908 0.142790 -0.522582 0.840547
69.83650208 -6.20099640 28.21380043 0.968564 0.203976 0.142398
69.86129761 -6.20639801 28.21899986 0.996554 -0.026876 -0.078477
69.76129913 -6.18720245 28.21719933 0.642669 -0.172498 -0.746473
69.86460114 -6.18550110 28.21179962 0.995410 0.051810 -0.080471
69.52909851 -6.17269897 28.21949959 -0.914383 -0.403907 0.027629
69.70790100 -6.17030334 28.21059990 0.835619 0.495239 0.237653
69.80490112 -6.17369843 28.21529961 0.286694 0.887100 0.361745
69.84960175 -6.15820313 28.21839905 0.938116 0.312705 0.148842
69.78269958 -6.14630127 28.21290016 0.448446 -0.695175 0.561808
69.69840240 -6.13130188 28.21220016 0.791487 0.428924 0.435399
69.81980133 -6.12259674 28.21990013 0.216791 0.935699 -0.278332
69.59439850 -6.11689758 28.21439934 0.655659 -0.754360 -0.032430
69.76029968 -6.11309814 28.21739960 0.787390 0.554788 -0.268750
69.63019562 -6.10240173 28.21540070 -0.840893 0.339802 -0.421229
69.78749847 -6.10179901 28.21439934 0.565134 0.763652 -0.312185
69.72840118 -6.09079742 28.21290016 0.658474 0.530484 -0.533852
69.66020203 -6.06199646 28.21319962 0.005133 0.046199 -0.998919
69.63500214 -6.05789948 28.21100044 0.831503 -0.328514 -0.447974
69.67449951 -6.03980255 28.21610069 0.264121 0.526679 -0.807991
69.69459534 -6.02110291 28.21299934 0.529193 0.289081 -0.797739
69.55660248 -6.01290131 28.21400070 -0.747738 0.435495 -0.501231
69.63980103 -6.01319885 28.21759987 0.269816 0.287130 -0.919106
69.62699890 -5.94670105 28.21579933 -0.161867 0.524211 -0.836064
69.67310333 -5.94460297 28.21910095 -0.669753 0.442605 -0.596264
69.64649963 -5.87500000 28.21120071 -0.896483 -0.357112 -0.262277
69.71379852 -6.90160370 28.22430038 0.281648 -0.959093 -0.028537
69.72039795 -6.87850189 28.22410011 0.055588 -0.771107 -0.634275
70.46060181 -6.85269928 28.22150040 -0.290701 -0.856721 0.426054
69.75769806 -6.84760284 28.22400093 0.892607 -0.446987 0.058778
69.73979950 -6.83640289 28.22870064 0.903994 -0.253470 0.344309
70.56569672 -6.83540344 28.22800064 -0.308075 -0.865983 -0.393907
70.46599579 -6.82779694 28.22629929 -0.675974 0.579168 0.455657
70.59320068 -6.82260132 28.22500038 0.212882 -0.747418 -0.629323
70.62239838 -6.82189941 28.22120094 0.426478 -0.582466 -0.691990
69.66120148 -6.81900024 28.22310066 -0.961735 0.255521 -0.098870
70.34310150 -6.80410004 28.22830009 -0.782930 -0.197648 0.589878
70.49649811 -6.80480194 28.22419930 -0.113760 -0.993503 0.003250
70.55419922 -6.80599976 28.22260094 -0.004108 -0.801142 -0.598460
70.63980103 -6.80829620 28.22520065 0.399456 -0.252839 -0.881197
69.71379852 -6.79730225 28.22120094 0.620028 0.713922 0.325393
70.41909790 -6.78769684 28.22859955 -0.248970 0.938853 0.237843
69.73680115 -6.77200317 28.22109985 0.427827 0.792692 0.434285
70.39780426 -6.77649689 28.22130013 -0.495186 -0.858226 -0.135051
70.52390289 -6.77899933 28.22610092 0.366900 -0.888048 -0.277047
70.62100220 -6.77880096 28.22879982 0.408246 -0.049525 -0.911527
70.31089783 -6.73699951 28.22139931 -0.436839 -0.351679 0.827945
70.61560059 -6.73120117 28.22820091 0.296638 0.623741 -0.723155
70.58860016 -6.72599792 28.22100067 0.546934 0.513277 -0.661370
70.33769989 -6.70079803 28.22719955 -0.422452 -0.242046 0.873469
70.47730255 -6.69480133 28.22900009 0.592041 0.805563 -0.023571
70.48470306 -6.67479706 28.22480011 0.681191 0.708869 -0.182984
69.96749878 -6.66880035 28.22249985 -0.825356 -0.403965 0.394460
70.44720459 -6.66419983 28.22949982 0.354587 0.925790 0.131073
69.94640350 -6.65609741 28.22719955 -0.475193 -0.867554 -0.146772
70.40529633 -6.65429688 28.22109985 0.508510 0.856064 -0.092586
70.25869751 -6.64209747 28.22500038 -0.359776 0.276176 0.891228
69.82689667 -6.63980103 28.22529984 -0.561934 -0.807306 0.180243
69.86869812 -6.63099670 28.22139931 -0.165558 -0.977164 0.133193
70.01280212 -6.63390350 28.22739983 0.061928 -0.987336 -0.146056
70.32119751 -6.63780212 28.22739983 0.715557 0.648919 -0.258616
70.42150116 -6.63320160 28.22599983 0.488788 0.858681 0.154122
70.39530182 -6.61260223 28.22309875 0.526366 0.850074 -0.017682
69.81079865 -6.59790039 28.22870064 -0.729586 -0.624219 -0.279382
70.00099945 -6.58930206 28.22279930 0.666524 -0.704341 0.244234
70.28859711 -6.58280182 28.22159958 -0.513564 0.355792 0.780810
69.80780029 -6.56890106 28.22839928 -0.862372 -0.350194 -0.365621
70.04630280 -6.56169891 28.22190094 0.948832 0.219171 0.227338
70.02480316 -6.55039978 28.22360039 0.983956 -0.012630 0.177962
70.02210236 -6.49410248 28.22299957 0.849649 0.512694 0.123453
70.04479980 -6.46640015 28.22990036 0.693430 0.687197 -0.216599
69.83740234 -6.44799805 28.22929955 -0.675735 0.737038 0.012539
69.96669769 -6.44989777 28.22820091 0.653984 0.755684 -0.035312
69.86489868 -6.43530273 28.22739983 -0.310153 0.930458 -0.195073
69.89839935 -6.41159821 28.22940063 -0.092469 0.995401 -0.025021
69.71060181 -6.27510071 28.22970009 0.327985 0.942141 0.069256
69.67800140 -6.25559998 28.22529984 0.857910 0.357076 0.369442
69.78170013 -6.23220062 28.22270012 -0.474729 -0.622347 0.622347
69.70259857 -6.21040344 28.21999931 0.664253 -0.272391 0.696111
69.64690399 -6.20670319 28.22159958 0.757317 0.641265 -0.123492
69.63700104 -6.18560028 28.22830009 0.174140 -0.576932 -0.798013
69.71769714 -6.18399811 28.22879982 0.631931 0.674830 -0.381139
69.75690460 -6.16729736 28.22990036 0.564822 -0.824221 0.040444
69.68530273 -6.15730286 28.22039986 0.672149 0.723736 0.156278
69.73529816 -6.14450073 28.22050095 0.195601 0.430911 0.880940
69.55229950 -6.13639832 28.22830009 0.555627 -0.602914 -0.572515
69.79949951 -6.13549805 28.22089958 0.175096 0.983591 -0.043480
69.61399841 -6.11609650 28.22949982 0.162713 -0.737533 -0.655416
69.56359863 -6.09839630 28.22800064 0.196075 0.708648 -0.677770
69.68520355 -6.09559631 28.22669983 -0.507273 0.092361 -0.856822
69.60950470 -6.08110046 28.22010040 0.594423 -0.012413 -0.804057
69.76020050 -6.08689880 28.22809982 0.811270 0.544425 -0.213169
69.50299835 -6.07769775 28.22640038 -0.824870 0.292696 -0.483652
69.58129883 -6.07409668 28.22780037 0.472584 0.439879 -0.763656
69.55100250 -6.06379700 28.22150040 -0.725734 0.393312 -0.564460
69.74710083 -6.06809998 28.22480011 0.767163 0.576563 -0.281134
69.58010101 -6.03690338 28.22739983 -0.847307 -0.057421 -0.527991
69.71140289 -6.01959991 28.22909927 0.826109 0.225303 -0.516510
69.70230103 -5.99230194 28.22279930 0.740397 0.543395 -0.395644
69.59919739 -5.98690033 28.21999931 -0.629387 0.366458 -0.685260
69.65740204 -5.98889923 28.22340012 0.519655 0.533109 -0.667648
69.63459778 -5.97260284 28.22259903 0.113073 0.791509 -0.600607
69.53590393 -5.96199799 28.22139931 0.875092 -0.247668 -0.415781
69.69169617 -5.92539978 28.22800064 0.820979 -0.218622 -0.527445
69.71759796 -5.91960144 28.22509956 0.668888 -0.001379 -0.743362
69.59099579 -5.86039734 28.22369957 0.330334 -0.919500 -0.213072
69.65789795 -5.85569763 28.22410011 -0.785689 0.551722 -0.279813
69.70130157 -5.85299683 28.22229958 0.388431 0.057397 -0.919688
69.61579895 -6.92829895 28.23789978 0.572517 -0.686019 -0.449000
69.64419556 -6.91139984 28.23690033 0.274698 -0.833406 -0.479558
69.61250305 -6.90080261 28.23360062 -0.748674 0.563535 -0.349164
69.68610382 -6.88230133 28.23990059 -0.079898 -0.684215 -0.724890
69.64440155 -6.87460327 28.23450089 -0.702786 -0.018163 -0.711169
69.66860199 -6.86979675 28.23660088 -0.386320 -0.453645 -0.803096
69.71599579 -6.86209869 28.23789978 0.612327 -0.789691 -0.038006
70.50589752 -6.82710266 28.23450089 0.177841 -0.788886 -0.588244
70.65280151 -6.82129669 28.23340034 0.327393 -0.512649 -0.793728
70.46260071 -6.80380249 28.23200035 -0.302847 -0.191199 0.933663
70.57830048 -6.80110168 28.23870087 0.391354 -0.662164 -0.639046
70.37449646 -6.79579926 28.23640060 -0.345671 -0.121600 0.930443
70.53120422 -6.79799652 28.23240089 -0.156111 -0.831107 -0.533752
69.68589783 -6.78520203 28.23889923 -0.499100 0.757650 0.420553
69.72010040 -6.78119659 28.23699951 0.380657 0.832392 0.402770
70.67749786 -6.78179932 28.23520088 0.497788 -0.183868 -0.847585
70.64959717 -6.77339935 28.23889923 0.486157 0.216574 -0.846609
70.56769562 -6.76399994 28.23929977 0.446454 0.254463 -0.857862
70.59940338 -6.76159668 28.23850060 0.604892 0.457439 -0.651809
70.63279724 -6.75450134 28.23959923 0.366126 0.615682 -0.697773
70.54730225 -6.73190308 28.23780060 0.545176 0.803009 -0.240747
70.57150269 -6.71420288 28.23180008 0.422765 0.856292 -0.296704
70.50289917 -6.70330048 28.23819923 0.343455 0.864027 -0.368097
70.52790070 -6.70159912 28.23640060 0.457748 0.849666 -0.261789
70.37580109 -6.67880249 28.23220062 -0.040177 0.934450 -0.353821
70.46260071 -6.67919922 28.23769951 0.169149 0.982501 0.077976
70.31020355 -6.66139984 28.23060036 -0.465557 -0.245753 0.850213
70.42449951 -6.65840149 28.23329926 0.472384 0.871094 0.134348
70.51409912 -6.65940094 28.23579979 0.727235 0.590573 -0.349789
70.39009857 -6.64720154 28.23390007 0.661519 0.747617 -0.058834
70.45680237 -6.64019775 28.23730087 0.350713 0.898241 -0.264885
69.96839905 -6.62180328 28.23600006 0.548768 -0.742066 0.384957
69.83290100 -6.61209869 28.23699951 -0.735317 -0.663138 -0.139846
69.88089752 -6.61479950 28.23329926 -0.238880 -0.966894 -0.089738
69.84329987 -6.59120178 28.23990059 -0.600100 -0.757606 -0.256736
69.89179993 -6.59470367 28.23819923 -0.088410 -0.972511 0.215422
69.83340454 -6.57379913 28.23660088 -0.784823 -0.617960 -0.046665
70.03949738 -6.57530212 28.23600006 0.990357 -0.120775 0.067864
70.01190186 -6.56919861 28.23570061 0.947086 -0.220030 0.233697
69.81579590 -6.54239655 28.23419952 -0.963664 -0.238658 0.119974
70.00839996 -6.52639771 28.23119926 0.952158 0.217443 0.214742
69.80329895 -6.51360321 28.23180008 -0.997429 0.037497 -0.061067
70.04759979 -6.50610352 28.23329926 0.983751 -0.159365 0.082678
69.98400116 -6.48259735 28.23760033 0.877744 0.469163 -0.097214
70.02330017 -6.47170258 28.23880005 0.691648 0.720288 -0.052983
69.93579865 -6.42559814 28.23570061 0.198943 0.957329 -0.209624
69.96489716 -6.42839813 28.23399925 0.577530 0.812555 -0.078819
69.88100433 -6.39170074 28.23600006 0.583589 0.809034 0.069917
69.73819733 -6.28109741 28.23600006 -0.553029 0.786215 0.275727
69.76709747 -6.22229767 28.23660088 -0.170075 -0.961120 0.217537
69.68540192 -6.21869659 28.23600006 0.605973 -0.778245 0.164716
69.82099915 -6.21759796 28.23780060 0.216625 -0.643640 0.734031
69.84470367 -6.21199799 28.23789978 0.017145 -0.900793 0.433910
69.75569916 -6.19879913 28.23920059 -0.434474 -0.816429 0.380364
69.84690094 -6.18939972 28.23170090 0.969856 0.240329 0.040258
69.61450195 -6.17259979 28.23609924 0.678032 0.567538 0.467089
69.54190063 -6.15360260 28.23539925 -0.905111 -0.127698 0.405546
69.82309723 -6.15940094 28.23730087 0.641287 0.450408 0.621195
69.51930237 -6.14430237 28.23520088 -0.817880 -0.546759 0.179241
69.67569733 -6.14779663 28.23719978 0.889676 0.396887 0.225739
69.70500183 -6.14340210 28.23130035 0.881679 0.448776 0.145744
69.60199738 -6.13069916 28.23859978 0.435245 -0.595335 -0.675380
69.66220093 -6.13030243 28.23189926 0.551210 0.833095 -0.046050
69.77390289 -6.13629913 28.23270035 0.462531 -0.124583 0.877806
69.84470367 -6.13379669 28.23310089 0.630558 0.764719 0.132671
69.68450165 -6.12799835 28.23299980 0.801027 0.570864 0.180193
69.82369995 -6.12689972 28.23990059 0.297164 0.891491 0.341962
69.53189850 -6.11370087 28.23889923 -0.816863 -0.574202 -0.055022
69.65119934 -6.11119843 28.23670006 0.422728 0.899867 0.107426
69.70020294 -6.11560059 28.23600006 -0.613215 0.685941 0.391730
69.72709656 -6.08889771 28.23889923 0.151651 0.986317 0.064657
69.62750244 -6.06829834 28.23010063 -0.965966 0.068908 -0.249322
69.56809998 -6.05519867 28.23360062 -0.594195 -0.317226 -0.739121
69.61190033 -6.05329895 28.23180008 -0.719355 -0.567911 -0.400007
69.67880249 -6.05210114 28.23520088 0.128700 0.369495 -0.920277
69.71649933 -6.05539703 28.23250008 0.567725 0.731335 -0.377938
69.75669861 -6.04039764 28.23859978 0.821320 0.570092 0.020706
69.67849731 -5.99780273 28.23170090 0.554478 0.147167 -0.819082
69.62129974 -5.98799896 28.23719978 -0.983409 -0.131847 -0.124589
69.67479706 -5.96219635 28.23629951 0.524549 0.338470 -0.781208
69.55179596 -5.95520020 28.23439980 0.678245 -0.540922 -0.497380
69.60990143 -5.94779968 28.23670006 0.037303 0.338302 -0.940298
69.56600189 -5.93659973 28.23830032 0.221134 0.461824 -0.858963
69.59089661 -5.93849945 28.23950005 0.125718 0.489866 -0.862685
69.72329712 -5.90049744 28.23390007 0.703654 -0.176297 -0.688324
69.66760254 -5.89320374 28.23950005 -0.685432 -0.616063 -0.388136
69.68879700 -5.87619781 28.23049927 0.337976 0.256042 -0.905657
