85.77480316 15.33439636 28.49710083 0.919785 0.390810 -0.035528
85.31680298 15.36270142 28.49480057 -0.822060 0.501938 -0.268840
85.75759888 15.36139679 28.49570084 0.967372 -0.055882 0.247121
85.27529907 15.39430237 28.49530029 -0.755252 0.526882 0.389860
85.73069763 15.39990234 28.49410057 0.829483 0.540711 0.139966
85.74590302 15.42630005 28.49889946 0.619334 0.783734 -0.046769
85.31900024 15.44480133 28.49699974 -0.791719 0.601472 -0.106831
85.34120178 15.45649719 28.49300003 -0.913206 0.334311 -0.233005
85.69509888 15.45559692 28.49930000 0.809282 0.558177 -0.183034
85.39739990 15.46510315 28.49430084 -0.556533 0.778511 0.290158
85.65029907 15.47209930 28.49679947 0.604776 0.624991 -0.493591
85.67700195 15.47850037 28.49790001 0.605789 0.795185 0.026460
85.70249939 15.47570038 28.49810028 0.415712 0.767844 0.487442
85.36260223 15.48439789 28.49889946 -0.819801 0.169356 -0.547033
85.40560150 15.48570251 28.49710083 -0.660733 0.745330 0.088973
85.43510437 15.49620056 28.49824905 -0.374929 0.839277 0.393754
85.35179901 15.50129700 28.49959946 -0.974506 0.095833 -0.202866
85.38349915 15.51480103 28.49209976 0.019680 0.415896 -0.909199
85.40920258 15.51170349 28.49589920 0.023286 0.538324 -0.842416
85.47250366 15.51660156 28.49920082 -0.191083 0.981204 0.026963
85.55250549 15.51290131 28.49480057 -0.120948 0.961078 -0.248398
85.58740234 15.51499939 28.49399948 0.264991 0.906239 0.329408
85.44100189 15.52130127 28.49600029 -0.154029 0.941893 -0.298516
85.41799927 15.53510284 28.49469948 -0.126465 0.888097 0.441917
85.49980164 15.53150177 28.49329948 0.202247 0.970531 -0.131015
85.52999878 15.54360199 28.49629974 0.118115 0.932698 -0.340768
85.53700256 15.03589630 28.50359917 -0.063201 -0.997296 -0.037492
85.41210175 15.04759979 28.50270081 -0.622507 -0.736554 -0.264526
85.49870300 15.04949951 28.50629997 0.105281 -0.843690 0.526405
85.57879639 15.04840088 28.50979996 -0.063419 -0.968699 0.239999
85.71749878 15.04660034 28.50070000 -0.385213 -0.921046 0.057315
85.47650146 15.05069733 28.50309944 -0.466829 -0.883592 0.036534
85.59650421 15.05970001 28.50779915 -0.027013 -0.980672 0.193785
85.69450378 15.05100250 28.50849915 0.070654 -0.768542 -0.635886
85.75830078 15.05130005 28.50889969 0.402332 -0.915337 -0.016927
85.45569611 15.06479645 28.50580025 -0.429280 -0.785663 0.445479
85.49659729 15.06950378 28.50799942 -0.001018 -0.999040 0.043791
85.52310181 15.06140137 28.50629997 -0.339889 -0.883711 -0.321761
85.63189697 15.06559753 28.50790024 0.266334 -0.963467 0.028229
85.71849823 15.06739807 28.50849915 0.707135 -0.646203 -0.287023
85.77200317 15.06710052 28.50379944 0.674351 0.175851 -0.717166
85.65319824 15.07679749 28.50799942 0.559390 -0.828877 0.006805
85.68640137 15.07299805 28.50219917 -0.549906 -0.762773 0.340265
85.39869690 15.09839630 28.50709915 -0.548896 -0.545519 -0.633342
85.75980377 15.09369659 28.50049973 0.854221 0.355021 -0.379826
85.33300018 15.12519836 28.50139999 -0.849692 -0.520596 0.083692
85.35489655 15.12619781 28.50349998 -0.415870 -0.860896 0.293104
85.39099884 15.12909698 28.50869942 -0.694034 -0.711792 0.108027
85.73709869 15.14800262 28.50079918 0.842468 -0.440699 0.309891
85.36499786 15.17179871 28.50510025 -0.828213 -0.541808 0.143203
85.79080200 15.17160034 28.50289917 0.954777 -0.018624 -0.296738
85.77310181 15.18640137 28.50659943 0.996479 0.029086 0.078641
85.27780151 15.19329834 28.50539970 -0.912311 0.397674 0.097698
85.33760071 15.20179749 28.50670052 -0.700459 -0.384017 0.601571
85.78079987 15.21150208 28.50539970 0.988197 0.044970 -0.146442
85.28910065 15.23490143 28.50600052 -0.755203 -0.499646 0.424290
85.78199768 15.23940277 28.50009918 0.973180 -0.114270 0.199659
85.82540131 15.23269653 28.50040054 0.221150 -0.880149 -0.420037
85.32140350 15.24009705 28.50720024 -0.978349 -0.092065 0.185358
85.26889801 15.26119995 28.50959969 -0.985622 0.120664 0.118275
85.32080078 15.27649689 28.50880051 -0.961670 0.142615 0.234203
85.30699921 15.29250336 28.50349998 -0.939092 0.340664 0.045335
85.33429718 15.29810333 28.50559998 -0.530460 -0.641604 0.554036
85.30079651 15.33010101 28.50609970 -0.700928 -0.279413 -0.656222
85.28510284 15.34739685 28.50480080 -0.009721 -0.690212 -0.723542
85.78340149 15.36370087 28.50679970 0.986465 0.017106 -0.163080
85.30349731 15.38169861 28.50559998 -0.854291 0.488803 0.176801
85.74430084 15.38030243 28.50340080 0.878384 0.477529 0.020177
85.32399750 15.42209625 28.50930023 -0.107839 0.897725 -0.427155
85.35530090 15.42890167 28.50839996 0.009110 0.415158 0.909704
85.70970154 15.43650055 28.50460052 0.694934 0.669491 -0.262389
85.39160156 15.44249725 28.50550079 -0.662699 0.636258 -0.394975
85.35430145 15.46389771 28.50900078 -0.896857 0.116859 0.426605
85.34159851 15.47820282 28.50079918 -0.772139 0.629635 -0.085793
85.38999939 15.49720001 28.50589943 -0.253618 0.966221 -0.045775
85.61319733 15.49490356 28.50939941 0.275700 0.946617 0.167050
85.49500275 15.50730133 28.50950050 0.057255 0.998316 -0.009369
85.65360260 15.50039673 28.50959969 0.894983 0.365390 -0.255921
85.36840057 15.51429749 28.50860023 -0.826616 -0.482844 0.289081
85.63480377 15.51679993 28.50130081 0.129907 0.931229 -0.340494
85.57230377 15.53859711 28.50070000 0.216684 0.731113 -0.646933
85.59819794 15.53150177 28.50989914 0.613338 0.779667 -0.126232
85.55770111 15.55789948 28.50639915 -0.243432 0.926750 -0.286139
85.43769836 15.03910065 28.51099968 0.603935 -0.580251 -0.546417
85.67330170 15.04709625 28.51539993 -0.100136 -0.878659 -0.466832
85.72760010 15.04370117 28.51779938 0.455101 -0.006596 0.890415
85.40390015 15.06980133 28.51639938 -0.556961 -0.739893 -0.377296
85.44039917 15.07769775 28.51460075 -0.819931 -0.524571 -0.229212
85.74919891 15.07879639 28.51560020 0.088392 -0.879713 0.467216
85.38279724 15.08609772 28.51910019 -0.233090 -0.627308 -0.743071
85.48210144 15.08290100 28.51180077 -0.545464 -0.750624 -0.372870
85.68360138 15.09980011 28.51390076 0.456142 -0.889544 -0.025416
85.42759705 15.10510254 28.51420021 -0.324658 -0.942427 0.080179
85.74520111 15.10350037 28.51429939 0.863022 0.435303 0.256328
85.33029938 15.14990234 28.51910019 -0.864926 -0.431706 0.255994
85.37779999 15.15160370 28.51539993 -0.889117 0.079063 -0.450800
85.76640320 15.15969849 28.51180077 0.837093 -0.537411 0.102295
85.33509827 15.17780304 28.51490021 -0.501073 -0.265274 0.823745
85.29550171 15.18219757 28.51560020 -0.461957 -0.831522 0.308493
85.37020111 15.19899750 28.51989937 -0.713178 -0.642977 0.279208
85.79209900 15.19750214 28.51759911 0.951125 0.057605 -0.303387
85.76629639 15.22489929 28.51009941 0.932453 0.263795 -0.246867
85.79669952 15.26090240 28.51399994 0.975457 0.008237 0.220037
85.27069855 15.28260040 28.51440048 0.362541 -0.618453 0.697195
85.27059937 15.30870056 28.51810074 -0.810153 -0.455412 -0.369123
85.78070068 15.31590271 28.51729965 0.870359 0.438924 -0.223207
85.74610138 15.33059692 28.51849937 0.772805 0.616135 -0.152151
85.30809784 15.35030365 28.51289940 -0.600565 0.768164 -0.221914
85.28440094 15.37079620 28.51959991 -0.906359 0.420476 -0.041380
85.75370026 15.39360046 28.51829910 0.900640 0.279509 -0.332749
85.33609772 15.40129852 28.51560020 -0.749655 0.629092 -0.205575
85.77580261 15.40529633 28.51829910 0.180786 0.983522 -0.001137
85.29889679 15.41320038 28.51420021 -0.910353 0.318988 0.263638
85.72750092 15.41600037 28.51390076 0.737692 0.613416 -0.282012
85.30529785 15.43280029 28.51709938 -0.764788 0.626010 0.152354
85.32369995 15.44689941 28.51899910 -0.720698 0.692490 0.032438
85.68524933 15.44605255 28.51879883 0.940182 0.340389 0.013919
85.37829590 15.46439743 28.51314926 -0.643732 0.692377 -0.325920
85.67610168 15.46510315 28.51910019 0.865260 0.464539 -0.188487
85.71829987 15.46579742 28.51029968 -0.009724 0.712608 0.701495
85.42769623 15.48159790 28.51359940 -0.716594 0.670362 0.192633
85.34020233 15.49530029 28.51759911 -0.994038 0.096844 0.050092
85.44575500 15.50745010 28.51869965 -0.560092 0.775879 -0.290360
85.63279724 15.50509644 28.51840019 -0.718884 0.649365 0.248054
85.42220306 15.51550293 28.51589966 -0.712784 0.698384 -0.064799
85.62159729 15.52639771 28.51910019 -0.206271 0.910191 -0.359172
85.34600067 15.53450012 28.51129913 -0.952613 0.286963 0.100896
85.64990234 15.53970337 28.51709938 0.353336 0.387580 -0.851431
85.36630249 15.54455185 28.51679993 -0.890875 -0.222351 0.396108
85.57759857 15.55999756 28.51250076 0.131771 0.864478 -0.485092
85.53340149 15.03399658 28.52560043 -0.002991 -0.999852 -0.016947
85.50530243 15.04460144 28.52939987 -0.163080 -0.986465 -0.017106
85.55789948 15.04949951 28.52560043 0.197813 -0.976777 -0.082320
85.61329651 15.04460144 28.52899933 0.353371 -0.819250 -0.451618
85.63330078 15.04650116 28.52009964 -0.245507 -0.901171 -0.357234
85.47640228 15.05100250 28.52610016 -0.154646 -0.965561 -0.209227
85.53919983 15.05660248 28.52840042 -0.030536 -0.904126 0.426174
85.69889832 15.05169678 28.52949905 -0.391391 -0.897725 0.202243
85.62919617 15.07720184 28.52879906 0.443130 -0.834588 0.327259
85.70069885 15.07289886 28.52029991 0.081455 -0.356533 0.930725
85.45940399 15.08869934 28.52359962 -0.494487 -0.869058 -0.014821
85.77849579 15.08110046 28.52569962 0.696189 0.499186 -0.515881
85.73300171 15.09299850 28.52630043 0.095122 -0.657071 0.747803
85.35579681 15.10810089 28.52269936 -0.580823 -0.813152 0.037788
85.41110229 15.10310364 28.52610016 -0.474150 -0.872379 -0.118896
85.38739777 15.11049652 28.52389908 -0.476010 -0.874333 0.094637
85.71559906 15.12030029 28.52190018 0.507076 -0.523811 -0.684468
85.73940277 15.14620209 28.52280045 0.559709 -0.827700 0.040478
85.76219940 15.15129852 28.52989960 0.813592 -0.484996 -0.320698
85.78510284 15.15640259 28.52499962 0.944971 -0.307882 -0.110624
85.78009796 15.18650055 28.52960014 0.916364 -0.367390 0.159062
85.33950043 15.19499969 28.52770042 -0.268360 -0.915325 0.300273
85.31739807 15.20929718 28.52140045 -0.629272 -0.372963 0.681848
85.76715088 15.20775223 28.52334976 0.967776 0.003580 -0.251789
85.80329895 15.21900177 28.52440071 0.460109 -0.878650 -0.127569
85.30490112 15.22499847 28.52020073 -0.815057 0.573558 -0.081937
85.33959961 15.22830200 28.52840042 -0.692254 -0.630066 0.351855
85.82409668 15.23100281 28.52449989 0.816965 -0.159809 0.554102
85.28520203 15.26349640 28.52269936 -0.072577 -0.983953 -0.163001
85.30609894 15.26609802 28.52179909 -0.864825 0.220328 0.451148
85.77860260 15.27079773 28.52470016 0.946044 -0.318790 -0.058079
85.29450226 15.28600311 28.52149963 -0.983444 0.110078 0.143948
85.79199982 15.28880310 28.52160072 0.977830 0.204662 -0.044284
85.30819702 15.30190277 28.52440071 -0.891748 -0.447929 -0.064381
85.28900146 15.31700134 28.52910042 -0.820839 -0.289248 -0.492503
85.32530212 15.31400299 28.52540016 -0.606855 -0.769707 0.198188
85.27590179 15.33940125 28.52580070 -0.923715 0.202905 -0.324932
85.29109955 15.35269928 28.52779961 -0.941413 0.239859 -0.237086
85.75309753 15.35169983 28.52070045 0.746356 0.309778 -0.589059
85.78500366 15.35559845 28.52890015 0.932879 0.257491 -0.251863
85.77010345 15.36969757 28.52169991 0.816844 0.216088 -0.534857
85.31340027 15.38110352 28.52560043 -0.947931 0.003717 0.318455
85.75980377 15.41190338 28.52919960 0.588844 0.800299 -0.113070
85.72589874 15.43900299 28.52969933 0.621512 0.764354 0.171714
85.35610199 15.44629669 28.52619934 -0.688097 0.714964 0.123887
85.70359802 15.44239807 28.52650070 0.719894 0.691041 -0.064920
85.39633942 15.47549915 28.52616692 -0.459961 0.722321 -0.516418
85.36419678 15.49299622 28.52479935 -0.838213 0.401021 0.369569
85.59149933 15.49310303 28.52910042 0.917072 0.183414 0.354032
85.66100311 15.50550079 28.52759933 -0.050230 0.971526 0.231549
85.35359955 15.51339722 28.52249908 -0.813900 -0.078950 0.575616
85.39099884 15.51239777 28.52580070 -0.155689 0.977728 0.140743
85.46849823 15.51550293 28.52020073 0.337508 0.933907 -0.117924
85.52999878 15.51560211 28.52659988 -0.192524 0.916983 -0.349395
85.58799744 15.51580048 28.52400017 0.547779 0.826809 0.127766
85.50790405 15.52989960 28.52129936 -0.651117 0.758946 0.006912
85.55500031 15.53505325 28.52359962 -0.176772 0.984219 0.007983
85.44370270 15.54129791 28.52680016 0.001217 0.957524 -0.288352
85.48780060 15.54090118 28.52210045 0.439879 0.763656 -0.472584
85.53140259 15.54139709 28.52840042 -0.061197 0.898919 0.433820
85.66639709 15.54920197 28.52709961 0.117518 0.712543 0.691717
85.42659760 15.04900360 28.53179932 -0.303387 -0.951125 0.057605
85.71579742 15.04000092 28.53370094 -0.403911 -0.907052 0.118797
85.65779877 15.05280304 28.53420067 0.218724 -0.774066 -0.594123
85.45369720 15.06980133 28.53079987 -0.900879 0.095779 -0.423371
85.47640228 15.06770325 28.53890038 -0.248645 -0.940406 -0.231976
85.57209778 15.06819916 28.53149986 0.264356 -0.874639 0.406352
85.73069763 15.06490326 28.53459930 0.596792 -0.708587 0.376488
85.41320038 15.07009888 28.53949928 -0.459456 -0.877144 -0.139709
85.51779938 15.07150269 28.53319931 0.372944 -0.926429 -0.051395
85.65550232 15.07869720 28.53400040 0.392477 -0.899366 0.192618
85.68199921 15.08370209 28.53409958 0.370156 -0.926058 -0.073497
85.75659943 15.08390045 28.53849983 0.286382 -0.886135 -0.364350
85.44319916 15.09750366 28.53240013 -0.539458 -0.838366 -0.078285
85.70750427 15.09390259 28.53009987 -0.545177 -0.572182 0.612691
85.35890198 15.12920380 28.53050041 -0.471707 -0.708393 0.525045
85.74379730 15.12069702 28.53009987 0.810153 -0.369123 -0.455412
85.77259827 15.13320160 28.53809929 0.447606 -0.564083 -0.693872
85.35140228 15.15399933 28.53319931 -0.814406 0.479155 -0.327344
85.37490082 15.16549683 28.53129959 -0.964622 0.013347 -0.263299
85.75710297 15.18720245 28.53050041 0.885942 -0.461343 -0.047631
85.35559845 15.20880127 28.53070068 -0.628975 -0.548034 0.551407
85.31999969 15.24790192 28.53610039 -0.611237 -0.506838 -0.607869
85.77839661 15.24130249 28.53809929 0.934802 -0.190861 -0.299527
85.76270294 15.25839996 28.53079987 0.736494 -0.474997 0.481617
85.25800323 15.26889801 28.53450012 -0.912898 -0.382828 0.141632
85.80059814 15.29579926 28.53960037 0.623434 -0.136049 -0.769948
85.78780365 15.33260345 28.53120041 0.924117 0.258524 -0.281377
85.29850006 15.37660217 28.53860092 -0.377173 0.819595 0.431282
85.75399780 15.38939667 28.53840065 0.606287 0.740662 -0.289546
85.78679657 15.38069916 28.53969955 0.997887 0.058325 -0.028632
85.81210327 15.39309692 28.53269958 0.143644 0.983781 0.107431
85.30740356 15.41649628 28.53219986 -0.954912 -0.070497 -0.288396
85.33599854 15.42179871 28.53940010 -0.691050 0.709116 0.140017
85.74269867 15.43319702 28.53980064 0.596684 0.752617 -0.278452
85.68499756 15.44740295 28.53930092 0.771039 0.490661 -0.405896
85.37449646 15.45459747 28.53429985 -0.493883 0.864649 0.091984
85.33509827 15.46620178 28.53089905 -0.951670 0.306385 -0.021259
85.36429596 15.47419739 28.53499985 -0.731997 0.510581 0.451095
85.68609619 15.47175217 28.53609848 0.843498 0.524101 -0.117596
85.68740082 15.49759674 28.53980064 0.474302 0.228817 -0.850106
85.41490173 15.51950073 28.53989983 -0.201003 0.919484 -0.337857
85.68009949 15.52020264 28.53949928 0.511187 -0.356380 -0.782100
85.54630280 15.55339813 28.53829956 -0.429870 0.901513 -0.049859
85.45909882 15.03900146 28.54109955 0.206122 -0.958801 0.195484
85.58090210 15.03019714 28.54899979 0.047909 -0.880162 -0.472249
85.65640259 15.03079987 28.54649925 0.281358 -0.938322 -0.200970
85.53330231 15.04720306 28.54649925 -0.528771 -0.819979 0.219172
85.43900299 15.05940247 28.54780006 -0.155311 -0.985215 -0.072320
85.57810211 15.05319977 28.54870033 -0.956127 0.147198 -0.253287
85.36920166 15.06469727 28.54430008 -0.842012 0.342116 0.417100
85.49559784 15.06349945 28.54710007 -0.176149 -0.980361 -0.088682
85.61180115 15.07109833 28.54179955 -0.178585 -0.983924 0.001137
85.53099823 15.08609772 28.54809952 0.877302 -0.416980 0.237634
85.38500214 15.09020233 28.54010010 -0.618578 -0.428503 -0.658594
85.41749573 15.09670258 28.54529953 -0.160290 -0.807441 -0.567755
85.72270203 15.09799957 28.54820061 0.615271 0.390936 0.684551
85.77285004 15.10860062 28.54740143 0.146292 0.318562 -0.936545
85.33889771 15.11779785 28.54750061 -0.968915 -0.204050 -0.139883
85.39980316 15.12460327 28.54789925 -0.823713 -0.563742 0.060754
85.32430267 15.15940094 28.54199982 -0.909387 -0.402788 -0.103811
85.72650146 15.16089630 28.54960060 0.833330 0.337412 -0.437851
85.75689697 15.16719818 28.54669952 0.649876 -0.653184 0.388603
85.34629822 15.18430328 28.54990005 -0.737925 0.534133 -0.412515
85.37110138 15.18450165 28.54299927 -0.968957 -0.237575 0.068412
85.79160309 15.18340302 28.54570007 0.641990 -0.763175 -0.073576
85.30680084 15.20169830 28.54850006 -0.540394 -0.817441 0.199413
85.27819824 15.21309662 28.54920006 -0.727655 -0.209453 -0.653183
85.31220245 15.22290039 28.54330063 -0.691252 -0.248345 -0.678598
85.33219910 15.22509766 28.54940033 -0.565579 -0.806892 0.170428
85.28050232 15.24299622 28.54089928 -0.695796 -0.613551 -0.373394
85.75839996 15.24289703 28.54689980 0.054321 0.522313 0.851022
85.79859924 15.25420380 28.54599953 0.712500 0.529808 -0.460052
85.30290222 15.26920319 28.54669952 -0.857910 0.357076 0.369442
85.32769775 15.27310181 28.54389954 -0.988298 -0.136197 -0.068680
85.30760193 15.29350281 28.54350090 -0.998216 0.015712 -0.057610
85.77939606 15.29180145 28.54549980 0.862022 -0.263015 -0.433291
85.83999634 15.29730225 28.54890060 -0.185849 0.970262 -0.155088
85.25399780 15.30680084 28.54299927 -0.947191 0.290722 -0.135313
85.78129578 15.31670380 28.54529953 0.988142 0.052007 -0.144465
85.80280304 15.32209778 28.54739952 0.898460 0.217676 -0.381297
85.28600311 15.33670044 28.54890060 -0.708755 -0.634489 0.308365
85.26779938 15.35829926 28.54929924 -0.929002 0.318075 -0.189163
85.33180237 15.35399628 28.54500008 -0.841267 -0.063412 0.536889
85.76789856 15.36750031 28.54669952 0.817441 0.269366 -0.509149
85.32050323 15.38480377 28.54859924 -0.857011 0.004036 -0.515283
85.30329895 15.39869690 28.54739952 -0.917961 0.357849 0.171145
85.77529907 15.40429688 28.54630089 0.501731 0.860717 -0.086213
85.72509766 15.41609955 28.54089928 0.549655 0.770799 -0.322101
85.31079865 15.43550110 28.54509926 -0.752003 0.652709 0.091993
85.69419861 15.43080139 28.54820061 0.573606 0.739351 -0.352613
85.71749878 15.43740082 28.54960060 0.386972 0.749453 -0.537190
85.34010315 15.44349670 28.54420090 -0.440522 0.808959 0.389262
85.41889954 15.48840332 28.54549980 -0.465138 0.768702 -0.439025
85.63059998 15.48989868 28.54549980 -0.163486 0.982129 0.093248
85.65579987 15.48940277 28.54870033 0.397948 0.883832 0.245923
85.37909698 15.49199677 28.54190063 -0.813549 -0.203006 0.544910
85.45960236 15.50900269 28.54420090 0.214069 0.958659 0.187477
85.49670410 15.50650024 28.54249954 -0.139899 0.988544 -0.056653
85.55740356 15.51550293 28.54179955 0.175400 0.748884 -0.639068
85.61470032 15.51300049 28.54319954 0.283711 0.684433 -0.671610
85.37969971 15.52089691 28.54459953 -0.816404 0.270053 0.510447
85.50240326 15.52919769 28.54630089 0.449141 0.659519 0.602750
85.63639832 15.52919769 28.54520035 -0.461261 0.826491 0.322725
85.65799713 15.52510071 28.54229927 0.633874 0.755481 -0.165689
85.46209717 15.53659821 28.54000092 -0.446321 0.749358 -0.489142
85.56770325 15.53279877 28.54470062 0.333350 0.555583 -0.761712
85.58820343 15.53040314 28.54280090 0.009435 0.508116 -0.861237
85.61170197 15.53829956 28.54490089 0.382628 0.865140 -0.324235
85.36380005 15.54389954 28.54129982 -0.805319 0.106694 0.583162
85.58280182 15.55190277 28.54159927 0.511882 0.795730 -0.323714
85.48290253 15.56210327 28.54299927 -0.019252 0.930501 -0.365783
85.56770325 15.57199860 28.54730034 -0.114497 0.993394 -0.007633
85.62580109 15.03980255 28.55520058 -0.218302 -0.963404 -0.155556
85.55989838 15.04650116 28.55769920 -0.025810 -0.868038 -0.495827
85.68520355 15.05639648 28.55739975 0.616624 -0.731941 0.289893
85.71759796 15.05570221 28.55660057 0.016234 -0.950292 0.310937
85.39900208 15.06259918 28.55649948 -0.315483 -0.948924 -0.003712
85.63555145 15.06920242 28.55540085 -0.109853 -0.795334 -0.596134
85.43685150 15.08600235 28.55194855 -0.554112 -0.760895 -0.337637
85.58540344 15.08640289 28.55039978 -0.057317 -0.521441 0.851360
85.67189789 15.08470154 28.55800056 0.464846 -0.817050 -0.341098
85.69740295 15.08190155 28.55520058 0.883267 -0.420252 0.207914
85.75949860 15.09429932 28.55649948 -0.072263 -0.962242 -0.262430
85.78890228 15.09279633 28.55470085 -0.088339 0.792156 -0.603892
85.36940002 15.11840057 28.55669975 -0.679646 -0.718828 0.146177
85.73999786 15.13040161 28.54999924 0.832914 -0.543205 0.105744
85.75849915 15.14230347 28.55900002 0.971709 -0.218853 -0.088792
85.35389709 15.15950012 28.55520058 -0.769792 -0.619148 -0.155164
85.38150024 15.15699768 28.55640030 -0.875526 -0.412984 -0.250794
85.78160095 15.17120361 28.55879974 0.912283 -0.373142 -0.168836
85.37129974 15.19909668 28.55890083 -0.099295 0.960707 0.259197
85.35179901 15.20909882 28.55270004 -0.760474 -0.607443 -0.229548
85.78420258 15.20249939 28.55249977 0.695622 -0.650431 -0.305041
85.77269745 15.22239685 28.55019951 0.949916 -0.090157 -0.299217
85.79520416 15.22609711 28.55330086 0.255870 0.516392 0.817233
85.31990051 15.25170135 28.55699921 -0.959919 -0.162407 -0.228426
85.79540253 15.27970123 28.55780029 0.839218 -0.283876 -0.463819
85.28320313 15.28520203 28.55139923 -0.901460 0.248526 -0.354408
85.27590179 15.30780029 28.55620003 -0.974830 0.214047 -0.062379
85.31880188 15.30560303 28.55550003 -0.969672 0.099615 0.223188
85.30120087 15.32399750 28.55719948 -0.531450 0.551695 -0.642801
85.32479858 15.32599640 28.55629921 -0.109304 0.561092 -0.820505
85.31210327 15.34400177 28.55599976 -0.576366 0.109437 0.809831
85.78590393 15.35050201 28.55100060 0.908120 0.233932 -0.347265
85.28849792 15.36810303 28.55760002 -0.905337 0.361844 0.222338
85.33399963 15.39710236 28.55960083 -0.436005 0.858241 0.270782
85.78389740 15.39089966 28.55850029 0.070205 0.792316 -0.606058
85.30879974 15.41429901 28.55929947 -0.998504 -0.052990 -0.013507
85.73580170 15.42910004 28.55879974 0.646239 0.669260 -0.366695
85.36050415 15.44120026 28.55529976 -0.781854 0.615253 0.100837
85.70390320 15.45490265 28.55139923 0.473192 0.677183 -0.563483
85.68669891 15.46890259 28.55610085 0.776476 0.279911 -0.564566
85.40419769 15.47489929 28.55019951 -0.373731 0.871023 -0.318816
85.36160278 15.49530029 28.55879974 -0.523099 0.836064 -0.165424
85.43595123 15.49584961 28.55625153 -0.655928 0.675460 -0.336916
85.59230042 15.49130249 28.55209923 0.640126 0.439564 -0.630097
85.69550323 15.50540161 28.55979919 0.696904 -0.126845 -0.705858
85.39469910 15.51409912 28.55979919 -0.248717 0.962652 -0.106961
85.46890259 15.52220154 28.55920029 -0.012559 0.985343 -0.170123
85.70980072 15.52390289 28.55570030 0.437737 0.849179 -0.295434
85.39319611 15.53679657 28.55949974 0.227662 0.879399 -0.418124
85.42890167 15.53109741 28.55579948 0.037712 0.819894 0.571272
85.44940186 15.53230286 28.55890083 -0.798614 0.542307 0.260995
85.52030182 15.55130005 28.55019951 0.132211 0.891356 -0.433594
85.56469727 15.55239868 28.55799866 -0.164122 0.906238 -0.389611
85.57559967 15.01629639 28.56310081 0.654037 -0.610546 -0.446619
85.55239868 15.02279663 28.56189919 -0.379529 -0.924694 0.029997
85.62509918 15.02420044 28.56929970 -0.748471 -0.337863 -0.570649
85.65339661 15.03749847 28.56940079 0.368063 -0.913763 -0.171952
85.45079803 15.04830170 28.56500053 0.053059 -0.992317 -0.111763
85.50990295 15.04669952 28.56139946 -0.309231 -0.891841 -0.330145
85.48200226 15.05509949 28.56209946 0.258754 -0.965771 0.018222
85.59259796 15.05090332 28.56679916 0.409091 -0.584653 -0.700589
85.46790314 15.06980133 28.56590080 -0.418926 -0.891485 0.172499
85.57360077 15.06960297 28.56749916 0.561289 -0.814389 -0.147394
85.74299622 15.06610107 28.56459999 0.625223 -0.687581 -0.369226
85.54969788 15.07920074 28.56130028 0.439570 -0.552365 0.708288
85.60680389 15.07890320 28.56760025 -0.148717 -0.846655 -0.510938
85.71939850 15.07720184 28.56940079 0.310675 0.074094 0.947624
85.38890076 15.08589935 28.56320000 -0.123764 -0.735128 0.666536
85.56829834 15.09470367 28.56419945 -0.223510 -0.285362 -0.931994
85.69730377 15.11170197 28.56690025 0.368627 -0.722509 0.584888
85.73580170 15.11184692 28.56414986 0.399163 -0.337037 0.852687
85.37969971 15.13569641 28.56459999 -0.582662 -0.811213 0.049378
85.78179932 15.14289856 28.56010056 0.979702 0.053962 -0.193062
85.31189728 15.15650177 28.56200027 -0.942504 -0.332120 0.037187
85.33180237 15.16809845 28.56500053 -0.709979 -0.688876 0.146217
85.74069977 15.17019653 28.56959915 0.825202 -0.563587 0.037572
85.31199646 15.18979645 28.56559944 -0.888595 -0.385504 0.248568
85.33550262 15.18830109 28.56780052 -0.624566 0.594263 -0.506723
85.76149750 15.18219757 28.56259918 0.719181 -0.601764 -0.347360
85.26879883 15.19799805 28.56830025 -0.957241 -0.100010 0.271456
85.80950165 15.19619751 28.56170082 0.901361 -0.433019 0.006541
85.29059601 15.20469666 28.56430054 -0.622249 -0.769190 0.145441
85.76969910 15.20649719 28.56940079 0.931457 -0.253006 0.261487
85.82050323 15.21990204 28.56550026 0.759717 -0.369284 0.535218
85.29710388 15.23729706 28.56500053 -0.687126 -0.018193 -0.726310
85.27580261 15.26519775 28.56159973 -0.925318 -0.372531 -0.070767
85.29519653 15.27760315 28.56559944 -0.700772 -0.133552 -0.700772
85.81970215 15.27510071 28.56599998 0.835365 -0.398018 -0.379139
85.82230377 15.30269623 28.56069946 0.570651 -0.031934 -0.820571
85.79029846 15.32869720 28.56620026 0.942476 0.263562 -0.205606
85.81050110 15.32499695 28.56739998 0.851270 0.438720 -0.287862
85.27210236 15.33049774 28.56690025 -0.875189 -0.062217 0.479764
85.33940125 15.34020233 28.56920052 -0.889219 0.399632 -0.222673
85.78240204 15.36519623 28.56879997 0.989745 0.130199 0.058763
85.76330566 15.38499832 28.56250000 0.636632 0.769914 -0.043955
85.74970245 15.40360260 28.56119919 0.728683 0.679033 -0.089077
85.75489807 15.43070221 28.56489944 0.639636 0.716201 -0.279143
85.37069702 15.45500183 28.56620026 -0.898220 0.428980 -0.095792
85.33139801 15.47740173 28.56879997 -0.860115 0.444469 -0.250298
85.73049927 15.47090149 28.56640053 0.667214 0.362296 -0.650820
85.67929840 15.48799896 28.56389999 0.871896 0.484077 0.073937
85.39340210 15.49189758 28.55999947 -0.372861 0.921908 -0.105166
85.62760162 15.49659729 28.56839943 -0.338433 0.910719 -0.236758
85.44940186 15.50640106 28.56920052 -0.304040 0.917884 -0.255048
85.64129639 15.51589966 28.56030083 0.580640 0.724573 -0.371282
85.66570282 15.51490021 28.56150055 0.556521 0.822366 -0.118316
85.51950073 15.52850342 28.56739998 -0.799219 0.585698 0.134933
85.59909821 15.52819824 28.56290054 0.451495 0.753587 -0.477764
85.37129974 15.53589630 28.56139946 -0.310933 0.620256 0.720141
85.54570007 15.53569794 28.56749916 0.216882 0.972869 -0.080556
85.63480377 15.53549957 28.56710052 0.218024 0.882479 -0.416768
85.49240112 15.54669952 28.56010056 -0.347144 0.903745 0.250471
85.45919800 15.55049896 28.56679916 -0.406716 0.846157 0.344384
85.58440399 15.55680084 28.56850052 0.390423 0.910987 -0.132940
85.53900146 15.03459930 28.57270050 -0.223209 -0.971395 -0.081053
85.56279755 15.03440094 28.57579994 -0.613551 -0.373394 -0.695796
85.72619629 15.04609680 28.57769966 0.700592 0.047087 0.712007
85.42040253 15.05870056 28.57469940 -0.448466 -0.849158 -0.278943
85.61759949 15.05629730 28.57889938 -0.523978 -0.808647 -0.267464
85.68699646 15.05909729 28.57839966 0.103636 -0.795517 -0.597003
85.51709747 15.06340027 28.57320023 0.102031 -0.959610 -0.262181
85.65110016 15.06340027 28.57710075 0.299363 -0.903989 -0.305262
85.41889954 15.08440018 28.57234955 -0.623318 -0.731721 -0.275790
85.68730164 15.08650208 28.57410049 0.853611 -0.520825 -0.009470
85.41500092 15.10630035 28.57710075 -0.560594 -0.826064 -0.057895
85.71489716 15.10649872 28.57799911 0.560861 -0.700660 0.441033
85.35130310 15.11889648 28.57060051 -0.517440 -0.605085 0.605085
85.38920593 15.11705017 28.57584953 -0.784813 -0.558334 -0.268944
85.77190399 15.11190033 28.57040024 0.636136 0.172382 0.752074
85.72429657 15.13269806 28.57979965 0.612544 -0.775087 0.155017
85.34259796 15.14189911 28.57329941 -0.685432 -0.616063 0.388136
85.76529694 15.17070007 28.57869911 0.919957 -0.245417 -0.305695
85.79460144 15.18810272 28.57769966 0.883284 -0.453732 -0.118056
85.27629852 15.22899628 28.57699966 -0.814564 0.046426 -0.578214
85.31210327 15.22319794 28.57029915 -0.904220 0.225691 0.362561
85.30670166 15.24829865 28.57900047 -0.940935 -0.274958 -0.197583
85.79710388 15.24179840 28.57019997 0.818595 -0.208841 -0.535059
85.83020020 15.25405121 28.57674980 0.951333 0.109213 0.288163
85.26679993 15.27749634 28.57740021 -0.911339 -0.109250 -0.396896
85.31639862 15.27590179 28.57880020 -0.972230 0.212009 -0.099105
85.79650116 15.27239990 28.57979965 0.995297 0.069593 -0.067384
85.80339813 15.29329681 28.57369995 0.944848 0.136134 -0.297876
85.27839661 15.30380249 28.57620049 0.075702 -0.020258 -0.996925
85.31569672 15.30860138 28.57539940 -0.887226 0.232545 0.398437
85.29270172 15.33540344 28.57399940 -0.983905 0.161003 0.077520
85.27159882 15.35639954 28.57839966 -0.824976 0.565033 0.012313
85.31089783 15.35890198 28.57390022 -0.600904 0.026490 -0.798882
85.35230255 15.35919952 28.57509995 -0.703366 -0.709072 0.049935
85.79679871 15.35199738 28.57500076 0.970173 -0.117943 0.211789
85.31310272 15.38520050 28.57659912 -0.747204 0.611348 0.260652
85.79070282 15.39320374 28.57859993 0.837056 -0.534260 -0.117916
85.82040405 15.39299774 28.57080078 0.366189 0.913336 -0.178108
85.29720306 15.40470123 28.57430077 -0.872697 0.429612 -0.232021
85.33959961 15.41629791 28.57239914 -0.845309 0.534235 -0.006762
85.32050323 15.43499756 28.57509995 -0.611675 0.776992 0.148786
85.71479797 15.44909668 28.57550049 0.650735 0.559934 -0.512853
85.35030365 15.45159912 28.57209969 -0.720129 0.490619 -0.490619
85.74240112 15.45600128 28.57460022 0.466893 0.779239 -0.418088
85.38430023 15.47450256 28.57309914 -0.463374 0.358279 -0.810506
85.35130310 15.48909760 28.57780075 -0.430623 0.058413 -0.900640
85.35700226 15.50800323 28.57360077 -0.482183 0.656911 -0.579627
85.43009949 15.51429749 28.57099915 -0.132746 0.958140 -0.253664
85.50150299 15.51950073 28.57139969 -0.596841 0.790330 0.138419
85.68099976 15.51879883 28.57460022 -0.042722 0.987214 0.153567
85.46759796 15.52050018 28.57920074 -0.366859 0.875286 0.315103
85.65100098 15.52120209 28.57830048 0.305709 0.893267 0.329569
85.40910339 15.53420258 28.57670021 0.117249 0.920061 0.373818
85.61419678 15.53800201 28.57990074 0.419769 0.887804 -0.188677
85.55159760 15.55619812 28.57729912 0.091538 0.957924 0.272035
85.51309967 15.56829834 28.57099915 -0.300938 0.899850 -0.315763
85.46240234 15.00969696 28.58740044 -0.623062 -0.420359 0.659615
85.62339783 15.00440216 28.58449936 -0.951098 -0.008680 0.308766
85.44429779 15.03610229 28.58709908 -0.582603 -0.752729 0.306549
85.46569824 15.03790283 28.58919907 0.723504 -0.579131 -0.375697
85.62220001 15.03800201 28.58819962 -0.237900 -0.297731 -0.924532
85.48940277 15.05290222 28.58219910 -0.292531 -0.843541 -0.450404
85.55130005 15.05809784 28.58749962 -0.490471 -0.792794 -0.361823
85.38999939 15.06189728 28.58040047 -0.784651 -0.515078 0.344990
85.60060120 15.06809998 28.58469963 -0.429550 -0.891923 -0.141281
85.53690338 15.07499695 28.58819962 0.095292 -0.932783 -0.347613
85.75460052 15.08319855 28.58049965 0.624135 -0.773927 -0.107204
85.37190247 15.10150146 28.58790016 -0.779099 -0.617093 -0.110458
85.74510193 15.13169861 28.58300018 -0.282806 -0.423445 0.860648
85.32460022 15.14949799 28.58309937 -0.740930 -0.624520 0.246977
85.35620117 15.15200043 28.58930016 -0.792682 -0.543689 0.275784
85.77580261 15.15239716 28.58099937 0.387589 -0.464785 -0.796084
85.35649872 15.17579651 28.58300018 -0.952475 0.278741 -0.122857
85.31259918 15.18699646 28.58670044 -0.899803 -0.318711 0.297958
85.33339691 15.18959808 28.58880043 -0.556347 -0.812659 0.173387
85.31970215 15.20929718 28.58550072 -0.747901 -0.573444 0.334375
85.33869934 15.21669769 28.58849907 -0.843368 -0.309080 -0.439545
85.26349640 15.29570007 28.58819962 -0.709525 0.614921 0.344160
85.34069824 15.29730225 28.58270073 -0.893366 0.441835 -0.081719
85.82170105 15.30740356 28.58160019 0.652721 0.757597 -0.001380
85.28810120 15.31849670 28.58709908 -0.674867 0.693833 -0.251297
85.78189850 15.31759644 28.58130074 0.755045 0.655660 0.004141
85.33470154 15.34580231 28.58909988 -0.987147 0.137659 -0.081184
85.81240082 15.38700104 28.58880043 0.960757 0.072342 0.267793
85.32970428 15.39830017 28.58860016 -0.988360 0.010120 0.151796
85.76300049 15.39939880 28.58830070 0.903721 0.427382 -0.025140
85.80100250 15.42350006 28.58029938 0.801756 0.597522 -0.012420
85.72630310 15.43280029 28.58469963 0.448586 0.881305 -0.148567
85.75270081 15.43789673 28.58690071 0.644775 0.550500 -0.530298
85.36000061 15.44380188 28.58830070 -0.913562 0.286124 -0.289028
85.70169830 15.47879791 28.58009911 0.910459 0.383724 -0.154339
85.32599640 15.48970032 28.58659935 -0.778068 0.152002 -0.609512
85.66999817 15.48950195 28.58979988 0.545407 0.831854 0.102716
85.64830017 15.49569702 28.58060074 -0.011231 0.947115 -0.320697
85.37120056 15.50070190 28.58580017 -0.411385 0.821182 -0.395502
85.39589691 15.50099945 28.58289909 -0.451261 0.835380 0.313853
85.41629791 15.50800323 28.58499908 -0.199217 0.979580 0.027112
85.69059753 15.50379944 28.58679962 0.470754 0.870533 -0.143399
85.72440338 15.50279999 28.58600044 0.845931 0.454553 0.278895
85.44869995 15.52040100 28.58709908 -0.042379 0.996445 0.072805
85.48940277 15.54399872 28.58709908 -0.441700 0.884839 -0.148193
85.51650238 15.55180359 28.58819962 -0.305844 0.948766 -0.079389
85.60389709 15.55419922 28.58869934 0.492619 0.613672 -0.617035
85.52970123 15.57199860 28.58200073 0.392832 0.916608 0.074247
85.58239746 15.00930023 28.59720039 -0.852746 -0.410123 0.323455
85.63490295 15.02729797 28.59939957 0.015370 -0.705625 0.708419
85.66210175 15.02929688 28.59950066 -0.014741 -0.875072 0.483769
85.51409912 15.03089905 28.59560013 0.111569 -0.965649 -0.234680
85.57189941 15.03690338 28.59390068 -0.064559 -0.960797 0.269631
85.70169830 15.03420258 28.59370041 0.393036 -0.035492 0.918838
85.53189850 15.04940033 28.59650040 0.096378 -0.946616 0.307617
85.67310333 15.04920197 28.59339905 0.161162 -0.954983 0.249068
85.43720245 15.05660248 28.59379959 -0.655478 -0.684610 0.318837
85.64780426 15.05919647 28.59709930 0.584633 -0.767430 -0.263164
85.40720367 15.06839752 28.59950066 -0.327393 -0.793728 0.512649
85.46189880 15.06060028 28.59989929 -0.568439 -0.791478 0.224588
85.48550415 15.07199860 28.59490013 -0.126092 -0.951666 0.280058
85.67199707 15.07340240 28.59210014 0.558767 -0.829270 0.009563
85.70050049 15.07150269 28.59630013 0.763569 -0.512845 0.392367
85.38259888 15.08460236 28.59119987 -0.712814 -0.649312 -0.265122
85.42060089 15.08270264 28.59239960 -0.794871 -0.309381 0.521981
85.46389771 15.08910370 28.59560013 -0.300684 -0.855794 0.420958
85.40200043 15.09700012 28.59320068 -0.749953 -0.292626 0.593246
85.38649750 15.11569977 28.59589958 -0.862964 -0.339955 -0.373797
85.77929688 15.11329651 28.59140015 0.822804 -0.302478 -0.481145
85.36299896 15.13020325 28.59160042 -0.826244 -0.553249 0.106003
85.73390198 15.13069916 28.59989929 0.895824 -0.430388 -0.110751
85.75589752 15.13890076 28.59900093 0.060540 -0.969870 -0.235981
85.38269806 15.14769745 28.59950066 0.455419 -0.448889 0.768825
85.79299927 15.14579773 28.59609985 0.968135 0.163719 0.189502
85.33830261 15.16909790 28.59499931 -0.921149 -0.254358 0.294595
85.75219727 15.16139984 28.59869957 0.534269 -0.805297 -0.257010
85.79129791 15.18750000 28.59970093 0.982456 -0.171540 -0.073174
85.37200165 15.19059753 28.59799957 -0.277141 0.896633 0.345315
85.29090118 15.21369934 28.59919930 -0.431281 -0.892454 0.132374
85.79360199 15.21379852 28.59539986 0.737925 -0.412515 0.534133
85.25450134 15.22599792 28.59790039 -0.589978 -0.702355 -0.398276
85.30179596 15.23000336 28.59009933 -0.400221 -0.892802 0.206708
85.28179932 15.24459839 28.59189987 -0.621572 -0.738611 -0.260965
85.25340271 15.25379944 28.59659958 -0.554231 -0.023379 -0.832034
85.79479980 15.25839996 28.59499931 0.459453 -0.860155 0.221441
85.27540588 15.26309967 28.59815025 -0.805795 -0.591473 0.029226
85.25689697 15.27619934 28.59840012 -0.964161 -0.217294 0.152236
85.30380249 15.30130005 28.59440041 0.199263 0.656487 -0.727543
85.79679871 15.30359650 28.59449959 0.963009 0.158106 0.218212
85.79979706 15.33989716 28.59819984 0.783778 0.604629 0.141827
85.28389740 15.34549713 28.59379959 -0.891227 0.331027 0.310057
85.31539917 15.34079742 28.59910011 -0.174058 0.585743 -0.791586
85.76219940 15.34680176 28.59889984 0.936520 0.256178 0.239380
85.32240295 15.36879730 28.59180069 -0.937914 -0.183715 -0.294221
85.79710388 15.36080170 28.59790039 0.812992 -0.378545 0.442434
85.31020355 15.39910126 28.59840012 -0.597920 0.288596 0.747799
85.34099579 15.41400146 28.59849930 -0.402316 0.644037 0.650660
85.77929688 15.41100311 28.59029961 0.663219 0.669737 0.334054
85.30539703 15.42340088 28.59919930 -0.974582 -0.003518 -0.224001
85.31610107 15.44200134 28.59399986 -0.399737 0.409292 -0.820177
85.71099854 15.45880127 28.59339905 0.776580 0.504209 0.377752
85.73380280 15.45079803 28.59259987 0.597315 0.786892 -0.154971
85.33080292 15.46910095 28.59679985 -0.663361 -0.456165 -0.593182
85.34549713 15.50930023 28.59449959 -0.406892 0.910405 -0.074846
85.32150269 15.51529694 28.59230042 -0.386688 0.922101 0.014226
85.48550415 15.51670074 28.59630013 -0.322075 0.891323 0.319079
85.62180328 15.51119995 28.59930038 0.772530 0.588371 0.238782
85.59359741 15.52760315 28.59889984 0.051805 0.988895 0.139297
85.46409607 15.53160095 28.59600067 -0.505894 0.861536 0.042732
85.53479767 15.53990173 28.59939957 0.094863 0.967599 0.233995
85.56610107 15.53119659 28.59460068 0.130533 0.927468 0.350377
85.64330292 15.53890228 28.59110069 0.252184 0.964380 -0.079837
85.66930389 15.53900146 28.59429932 0.247791 0.967739 -0.045613
85.58039856 15.54630280 28.59160042 0.393281 0.850295 0.349756
85.47920227 15.02429962 28.60840034 -0.528225 -0.726930 0.438807
85.60700226 15.04879761 28.60199928 -0.141608 -0.976216 -0.164165
85.41839600 15.05069733 28.60569954 -0.473257 -0.843899 0.252710
85.68879700 15.05819702 28.60939980 0.340258 -0.717960 0.607254
85.51729584 15.06870270 28.60820007 -0.240529 -0.908180 -0.342572
85.56639862 15.06800079 28.60650063 0.043229 -0.928779 -0.368105
85.75379944 15.08650208 28.60050011 0.510500 -0.857361 0.065736
85.43679810 15.09449768 28.60939980 -0.471110 -0.714156 0.517722
85.71530151 15.10590363 28.60009956 0.740466 -0.516182 -0.430427
85.34590149 15.13849640 28.60840034 -0.653042 -0.724736 0.219759
85.77709961 15.13349915 28.60820007 0.793374 -0.040867 0.607361
85.73069763 15.15249634 28.60070038 0.912770 -0.396678 -0.097454
85.78120422 15.16449738 28.60090065 0.882047 -0.454560 0.123971
85.36569977 15.17250061 28.60409927 -0.198599 0.231023 0.952464
85.74980164 15.18009949 28.60750008 0.864362 -0.441986 0.239849
85.76219940 15.20349884 28.60829926 0.670636 -0.610728 0.421020
85.32070160 15.23390198 28.60020065 -0.669886 -0.742306 0.015320
85.81079865 15.24629974 28.60919952 0.755613 -0.653542 0.043947
85.81569672 15.26470184 28.60210037 0.931662 0.174077 0.318910
85.30229950 15.27200317 28.60470009 -0.966528 0.233652 -0.105973
85.81620026 15.29360199 28.60680008 0.952184 -0.273004 0.137168
85.32589722 15.31320190 28.60740089 -0.832817 0.090305 -0.546133
85.82859802 15.31330109 28.60160065 0.832469 0.446806 0.327657
85.81009674 15.32180023 28.60840034 0.573421 0.814861 0.084792
85.29689789 15.33260345 28.60899925 -0.853531 -0.336146 0.398108
85.28790283 15.36720276 28.60359955 -0.848797 0.440633 -0.292209
85.77390289 15.36380005 28.60180092 0.924519 0.331698 0.187727
85.78610229 15.37999725 28.60770035 0.371988 0.578465 0.725950
85.76460266 15.38359833 28.60199928 0.975808 0.199119 0.090284
85.75050354 15.40139771 28.60569954 0.846932 0.471535 0.245686
85.76100159 15.42680359 28.60199928 0.529212 0.721653 -0.446264
85.34449768 15.43650055 28.60330009 -0.967624 0.252372 -0.003588
85.73059845 15.43360138 28.60779953 0.745020 0.664941 -0.052909
85.78630066 15.43350220 28.60810089 0.490786 0.812716 -0.314040
85.30860138 15.45749664 28.60779953 -0.857410 0.319791 -0.403214
85.68520355 15.45400238 28.60689926 0.885248 0.356203 0.299091
85.35739899 15.46839905 28.60600090 -0.882188 0.467848 0.053508
85.70449829 15.47735214 28.60665131 0.896434 -0.435095 0.084256
85.46890259 15.49800110 28.60740089 0.177022 0.902381 0.392903
85.39450073 15.50869751 28.60580063 0.067431 0.958028 -0.278630
85.49739838 15.50199890 28.60770035 -0.476547 0.877993 -0.045060
85.65090179 15.50839996 28.60650063 0.389004 0.853950 0.345609
85.42559814 15.51770020 28.60090065 -0.394888 0.876016 0.276875
85.68440247 15.51909637 28.60560036 0.270243 0.960441 -0.067244
85.36294556 15.52474976 28.60345078 -0.231694 0.964312 -0.128143
85.51879883 15.52030182 28.60549927 -0.728125 0.653605 0.206483
85.50469971 15.53859711 28.60420036 -0.810290 0.570314 -0.134802
85.48690033 15.54979706 28.60899925 -0.348502 0.937307 0.001258
85.55650330 15.54669952 28.60549927 -0.512172 0.858197 -0.034328
85.62560272 15.54799652 28.60090065 0.951359 0.034022 0.306199
85.51770020 15.56109619 28.60910034 -0.567309 0.721880 0.396294
85.57409668 15.56739807 28.60239983 0.119187 0.992481 0.027847
85.61750031 15.57009888 28.60260010 0.926619 -0.001275 -0.376001
85.51370239 15.02030182 28.61969948 0.243515 -0.908442 0.339754
85.53959656 15.03559875 28.61370087 0.084554 -0.990325 0.110036
85.58419800 15.03620148 28.61445045 0.076304 -0.365456 0.927696
85.61830139 15.03479767 28.61420059 -0.109853 -0.795334 0.596134
85.68360138 15.03839874 28.61160088 0.507370 -0.732133 0.454485
85.46119690 15.04129791 28.61009979 -0.481600 -0.511596 0.711569
85.49600220 15.04820251 28.61730003 0.252919 -0.592238 -0.765040
85.55300140 15.05359650 28.61359978 -0.270490 -0.923100 -0.273352
85.64839935 15.05280304 28.61720085 0.377260 -0.686976 0.621079
85.60305023 15.06529999 28.61425018 0.027415 -0.994631 0.099792
85.71230316 15.06970215 28.61339951 0.505245 -0.501910 -0.702007
85.69020081 15.07830048 28.61619949 0.365443 -0.544104 0.755249
85.37909698 15.08630371 28.61409950 -0.748828 -0.650572 -0.126541
85.61830139 15.08699799 28.61960030 -0.750940 -0.195830 0.630666
85.73079681 15.08149719 28.61140060 0.248102 -0.962840 0.106697
85.40540314 15.09709930 28.61420059 -0.214649 -0.898023 0.384032
85.68710327 15.09989929 28.61090088 0.534128 -0.809707 0.243067
85.76219940 15.10870361 28.61330032 0.324765 -0.421107 -0.846875
85.36560059 15.12619781 28.61260033 -0.905813 -0.399914 -0.139899
85.71990204 15.12090302 28.61689949 0.789570 -0.542730 -0.286397
85.38200378 15.14510345 28.61949921 -0.897482 -0.240213 0.369898
85.73989868 15.15850067 28.61770058 0.931922 -0.197596 -0.304101
85.32890320 15.16699982 28.61800003 -0.703149 -0.631697 0.326404
85.38909912 15.16739655 28.61230087 -0.845076 -0.136208 0.517005
85.34750366 15.17880249 28.61199951 -0.912802 0.395134 -0.103258
85.32299805 15.18930054 28.61870003 -0.820071 -0.571982 0.017918
85.32040405 15.21009827 28.61149979 -0.749233 -0.651313 -0.120174
85.78579712 15.21859741 28.61829948 0.814052 -0.514056 0.270309
85.27680206 15.22270203 28.61910057 -0.560481 0.793368 0.237545
85.29669952 15.23429871 28.61910057 -0.984533 -0.075001 -0.158335
85.78089905 15.23919678 28.61210060 0.859419 -0.510748 -0.023154
85.29830170 15.25420380 28.61590004 -0.989640 0.082567 -0.117454
85.79640198 15.26699829 28.61890030 0.998259 -0.028461 -0.051652
85.27059937 15.28639984 28.61739922 -0.973901 0.203260 0.101006
85.31279755 15.28720093 28.61759949 -0.969912 0.173428 -0.170859
85.28919983 15.31490326 28.61919975 -0.691292 -0.394317 -0.605499
85.78179932 15.32160187 28.61520004 0.764524 0.602588 0.228890
85.27960205 15.34670258 28.61580086 -0.954292 -0.194616 0.226829
85.30680084 15.35800171 28.61680031 -0.392158 0.559523 -0.730169
85.31970215 15.37689972 28.61170006 -0.949487 -0.191527 0.248578
85.76809692 15.37100220 28.61960030 0.534699 0.735417 -0.416243
85.80729675 15.37830353 28.61980057 -0.232935 0.809874 0.538373
85.28939819 15.39080048 28.61240005 -0.968695 0.181872 -0.168973
85.79669952 15.41169739 28.61339951 0.805433 0.507945 0.305400
85.32599640 15.45809937 28.61890030 -0.254538 -0.959413 0.121395
85.35469818 15.45030212 28.61820030 -0.701507 -0.704461 -0.107811
85.75679779 15.45390320 28.61669922 0.231192 0.964808 -0.125283
85.32869720 15.47989655 28.61370087 -0.070122 0.588169 0.805692
85.31040192 15.48889923 28.61709976 -0.964248 0.176626 -0.197560
85.66880035 15.49510193 28.61770058 0.365829 0.759299 0.538176
85.36910248 15.50579834 28.61969948 -0.065736 0.857361 0.510500
85.41419983 15.50039673 28.61540031 -0.104101 0.906368 0.409462
85.70539856 15.50289917 28.61190033 0.685018 0.703491 0.189342
85.44480133 15.51349640 28.61009979 -0.274469 0.956089 0.102763
85.38829803 15.52970123 28.61459923 -0.249537 -0.095976 0.963597
85.66130066 15.52359772 28.61940002 0.294219 0.647924 0.702588
85.43140411 15.53829956 28.61479950 -0.276682 0.933979 -0.226121
85.57399750 15.53790283 28.61969948 0.559938 0.610687 0.559938
85.61450195 15.53099823 28.61249924 0.095397 0.738223 0.667777
85.45339966 15.54290009 28.61989975 -0.635092 0.751398 0.179050
85.55999756 15.03330231 28.62280083 0.084899 -0.996222 0.018269
85.45580292 15.05349731 28.62899971 -0.583301 -0.741648 0.331237
85.47650146 15.05360031 28.62255096 -0.987031 -0.128846 0.095748
85.67300415 15.05319977 28.62430000 0.460046 -0.861649 0.214288
85.40560150 15.06890106 28.62249947 -0.811502 -0.584336 -0.004105
85.56420135 15.06569672 28.62750053 0.461681 0.194470 0.865466
85.43460083 15.07550049 28.62260056 -0.258284 -0.796766 0.546309
85.65679932 15.07119751 28.62199974 0.422581 -0.801779 0.422581
85.48010254 15.09159851 28.62770081 -0.703149 -0.631697 0.326404
85.70989990 15.09210205 28.62719917 0.660481 -0.647304 -0.380477
85.73789978 15.09459686 28.62630081 -0.022662 -0.894464 0.446565
85.77559662 15.09130096 28.62159920 0.258524 -0.924117 -0.281377
85.36579895 15.10160065 28.62089920 -0.862895 -0.502778 0.051247
85.42150116 15.10169983 28.62820053 -0.303028 -0.843816 0.442887
85.38179779 15.11190033 28.62890053 -0.891237 -0.452968 -0.022715
85.34870148 15.14900208 28.62829971 -0.709490 -0.703826 -0.035404
85.76799774 15.14219666 28.62599945 0.916785 0.243995 0.316183
85.29679871 15.18579865 28.62560081 -0.781125 -0.552967 0.289951
85.37979889 15.20069885 28.62089920 0.109304 -0.561092 0.820505
85.78120422 15.29650116 28.62649918 0.832807 0.547110 0.084281
85.80000305 15.30609894 28.62350082 0.909646 0.209031 0.358957
85.32309723 15.34359741 28.62109947 -0.990851 0.107275 -0.081898
85.77680206 15.35179901 28.62789917 0.862612 -0.471995 -0.181992
85.33840179 15.36049652 28.62000084 -0.924556 0.311026 0.220132
85.33719635 15.38459778 28.62080002 -0.840822 0.432111 0.326033
85.31859589 15.39530182 28.62150002 -0.962552 -0.098690 0.252494
85.35440063 15.39689636 28.62969971 -0.940202 0.080438 0.330983
85.77700043 15.39519882 28.62345123 0.674190 0.738398 -0.015354
85.30640411 15.41249847 28.62330055 -0.895263 -0.099163 0.434363
85.29740143 15.44349670 28.62089920 -0.996657 0.061951 0.053256
85.39900208 15.48680115 28.62010002 0.022623 0.975175 0.220278
85.43070221 15.48930359 28.62129974 -0.419849 0.856616 0.299892
85.71839905 15.48059845 28.62619972 0.829903 0.492997 0.261180
85.34189606 15.50389862 28.62459946 -0.372228 0.840262 0.394216
85.41819763 15.51940155 28.62820053 -0.210896 0.955077 0.208209
85.47370148 15.51715088 28.62585068 -0.356527 0.929662 -0.092832
85.50170135 15.51920319 28.62840080 -0.372479 0.927997 -0.008960
85.58270264 15.51860046 28.62190056 0.263281 0.926464 0.268974
85.69450378 15.51989746 28.62360001 0.403781 0.878110 0.256678
85.51969910 15.52819824 28.62439919 -0.897704 0.371717 0.236547
85.54010010 15.52590179 28.62960052 -0.184381 0.910473 0.370192
85.62860107 15.53959656 28.62700081 0.428555 0.655340 0.621989
85.52249908 15.54789734 28.62919998 -0.028256 0.886686 -0.461507
