98.32759857 10.28140259 27.34740067 -0.660840 -0.637652 0.395841
98.33660126 10.28949738 27.34040070 -0.645943 -0.724525 0.240461
98.41079712 10.29409790 27.34679985 0.713963 -0.578755 0.394081
98.42279816 10.29579926 27.34079933 0.781622 -0.542837 0.307236
98.34300232 10.30190277 27.34129906 -0.478234 -0.751041 0.455226
98.44470215 10.30979919 27.34779930 0.825244 -0.527366 0.202132
98.29920197 10.31659698 27.34079933 -0.825493 -0.474619 0.305448
98.44860077 10.31469727 27.34580040 0.860658 -0.495704 0.116383
98.45079803 10.32800293 27.34970093 0.716374 -0.693124 0.079920
98.26959991 10.34639740 27.34329987 -0.456024 -0.878960 0.139540
98.44509888 10.34449768 27.34950066 0.692544 -0.718460 -0.064791
98.47180176 10.34719849 27.34160042 0.618673 -0.775938 -0.123141
98.22820282 10.35919952 27.34589958 -0.761815 -0.647613 0.015320
98.27249908 10.35659790 27.34230042 -0.614027 -0.783213 0.097719
98.29209900 10.35009766 27.34639931 -0.642214 -0.766514 0.004143
98.22049713 10.37680054 27.34670067 -0.758215 -0.650101 0.049789
98.24140167 10.37940216 27.34480095 -0.706673 -0.678839 0.199477
98.50559998 10.37239838 27.34959984 0.903857 -0.427589 0.014472
98.51740265 10.39289856 27.34440041 0.847256 -0.501802 -0.174216
98.19029999 10.40740204 27.34620094 -0.554928 -0.831707 -0.017813
98.20159912 10.40270233 27.34129906 -0.625480 -0.778659 -0.049641
98.22850037 10.40329742 27.34449959 -0.582438 -0.796150 0.164046
98.49400330 10.40170288 27.34720039 0.796150 -0.582438 0.164046
98.20829773 10.41649628 27.34320068 -0.573210 -0.800074 0.176954
98.52610016 10.46479797 27.34469986 0.978955 0.029522 0.201932
98.16369629 10.47339630 27.34530067 -0.993285 -0.104144 -0.050392
98.19309998 10.47560120 27.34749985 -0.632783 0.682091 0.366521
98.51139832 10.48040009 27.34749985 0.945949 0.127108 0.298369
98.52619934 10.48509979 27.34650040 0.983329 -0.124886 0.132161
98.21939850 10.49949646 27.34639931 -0.745957 0.631194 0.212466
98.18679810 10.51540375 27.34110069 -0.247997 0.940726 -0.231371
98.21250153 10.51399994 27.34020042 -0.632030 0.761139 0.145622
98.20259857 10.53150177 27.34700012 -0.616909 0.729074 -0.296437
98.23719788 10.54049683 27.34709930 -0.830820 0.555272 -0.037575
98.52249908 10.57279968 27.34359932 0.870893 0.486307 0.071065
98.50650024 10.59230042 27.34329987 0.902188 0.415426 0.116095
98.26049805 10.60990143 27.34359932 -0.906333 0.338228 0.253305
98.24140167 10.61199951 27.34740067 -0.881094 0.439816 0.173881
98.50749969 10.61309814 27.34609985 0.825216 0.560121 -0.072687
98.27690125 10.63449860 27.34339905 -0.756342 0.648501 -0.085981
98.48829651 10.63760376 27.34070015 0.805549 0.389162 -0.446815
98.50109863 10.63990021 27.34980011 0.814553 0.508118 -0.279856
98.46679688 10.64530182 27.34149933 0.548122 0.744464 -0.381231
98.27469635 10.65450287 27.34720039 -0.758818 0.645214 0.088844
98.48390198 10.65380096 27.34550095 0.778761 0.571092 -0.259587
98.30079651 10.66400146 27.34320068 -0.853452 0.505696 0.126062
98.36160278 10.66719818 27.34460068 -0.048302 0.983705 0.173179
98.28820038 10.67250061 27.34309959 -0.502490 0.856681 0.116624
98.30090332 10.67120361 27.34620094 -0.337860 0.915817 0.217093
98.37439728 10.67299652 27.34760094 0.231545 0.967933 0.097426
98.38590240 10.67919922 27.34659958 0.531371 0.832034 -0.159262
98.44799805 10.67479706 27.34410095 0.606641 0.767177 -0.208388
98.28369904 10.68509674 27.34390068 -0.322310 0.937011 0.134636
98.34639740 10.68360138 27.34429932 -0.253981 0.959919 0.118525
98.37709808 10.68649673 27.34400177 0.049792 0.994730 -0.089625
98.34110260 10.26770020 27.35960007 -0.153561 -0.983030 -0.100359
98.35759735 10.26029968 27.35079956 -0.180368 -0.976475 0.118172
98.38259888 10.26570129 27.35790062 0.017567 -0.863499 0.504045
98.38790131 10.27970123 27.35680008 0.149804 -0.706653 0.691521
98.40589905 10.27210236 27.35000038 0.595514 -0.622506 0.507789
98.34999847 10.28530121 27.35950089 -0.372012 -0.919657 0.125848
98.36460114 10.28849792 27.35350037 -0.201673 -0.945257 0.256550
98.40689850 10.28350067 27.35490036 0.592309 -0.675733 0.438810
98.43830109 10.28810120 27.35799980 0.713191 -0.653099 0.254598
98.30699921 10.29689789 27.35110092 -0.611570 -0.618309 0.493636
98.32640076 10.29620361 27.35219955 -0.753201 -0.524463 0.397023
98.29309845 10.30950165 27.35989952 -0.611010 -0.780487 0.132311
98.31459808 10.30180359 27.35610008 -0.681270 -0.696932 0.223958
98.29100037 10.31639862 27.35580063 -0.684102 -0.708588 0.172938
98.29740143 10.32879639 27.35969925 -0.724601 -0.683779 0.086019
98.43039703 10.32099915 27.35160065 0.693054 -0.664243 0.280103
98.47769928 10.32869720 27.35790062 0.595217 -0.800760 0.067087
98.31659698 10.33029938 27.35379982 -0.755611 -0.652378 -0.058786
98.43379974 10.33979797 27.35449982 0.749233 -0.651313 -0.120174
98.46469879 10.33219910 27.35670090 0.606272 -0.778629 0.161773
98.27970123 10.34349823 27.35239983 -0.772139 -0.629635 -0.085793
98.46469879 10.34529877 27.35860062 0.705197 -0.686841 0.175917
98.49410248 10.34390259 27.35880089 0.581753 -0.813364 -0.001362
98.27239990 10.35669708 27.35829926 -0.660865 -0.750285 -0.018163
98.48020172 10.35269928 27.35260010 0.682503 -0.726160 0.082948
98.24759674 10.36219788 27.35000038 -0.652274 -0.724227 0.223681
98.49199677 10.36019897 27.35359955 0.853185 -0.441197 -0.278246
98.21410370 10.40370178 27.35140038 -0.573443 -0.816980 -0.060884
98.22239685 10.40540314 27.35040092 -0.540303 -0.838107 0.075160
98.19409943 10.41639709 27.35065079 -0.751661 -0.657881 0.046890
98.52950287 10.41860199 27.35619926 0.942627 -0.241522 0.230481
98.52780151 10.42690277 27.35020065 0.972722 -0.215468 0.085938
98.18419647 10.44869995 27.35670090 -0.974678 -0.214013 0.064815
98.52989960 10.44960022 27.35689926 0.984401 0.024235 0.174261
98.16410065 10.46900177 27.35040092 -0.901231 -0.398152 -0.171047
98.51989746 10.46350098 27.35969925 0.995277 -0.097074 -0.001067
98.19799805 10.48840332 27.35740089 -0.892269 0.432658 -0.129088
98.16519928 10.49700165 27.35110092 -0.996834 0.074038 0.028972
98.20549774 10.51570129 27.35519981 -0.432644 0.848231 0.305487
98.53420258 10.51159668 27.35230064 0.985975 -0.088987 -0.141193
98.23519897 10.52870178 27.35919952 -0.928957 0.298341 0.219160
98.22380066 10.53910065 27.35009956 -0.836224 0.542762 -0.078351
98.23040009 10.55290222 27.35589981 -0.803260 0.595161 -0.023584
98.53349304 10.55274963 27.35340118 0.916295 0.377954 -0.132493
98.26399994 10.58350372 27.35770035 -0.894715 0.354622 0.271530
98.49919891 10.58899689 27.35630035 0.912998 0.390491 0.118120
98.51679993 10.58354950 27.35295105 0.919760 0.373696 -0.119969
98.51499939 10.61810303 27.35709953 0.867410 0.435968 -0.239858
98.27110291 10.62860107 27.35040092 -0.908249 0.418083 0.017038
98.25969696 10.63909912 27.35519981 -0.946165 0.273639 0.172896
98.47450256 10.63130188 27.35169983 0.877832 0.449834 -0.164502
98.49310303 10.63379669 27.35880089 0.876578 0.427127 -0.221749
98.49909973 10.65409851 27.35260010 0.788460 0.601368 -0.129183
98.29624939 10.66539764 27.35620117 -0.486045 0.823619 0.292252
98.38590240 10.66619873 27.35680008 0.329802 0.622236 -0.709967
98.46410370 10.66629791 27.35930061 0.424300 0.895430 -0.134811
98.44229889 10.67250061 27.35610008 0.623433 0.734478 0.268092
98.45649719 10.67079926 27.35120010 0.448209 0.828794 -0.334977
98.36660004 10.69370270 27.35784912 0.044470 0.977133 -0.207926
98.39969635 10.24819946 27.36319923 0.424772 -0.664643 0.614670
98.37650299 10.25479889 27.36599922 0.095876 -0.981817 -0.163838
98.32180023 10.26260376 27.36849976 0.567194 -0.770557 -0.290746
98.33730316 10.26429749 27.36960030 -0.354578 -0.935026 -0.001262
98.39810181 10.26380157 27.36499977 0.440566 -0.516469 0.734276
98.34970093 10.27089691 27.36160088 -0.179244 -0.972496 -0.148735
98.36759949 10.27639771 27.36569977 0.087385 -0.989199 0.117679
98.40850067 10.27159882 27.36599922 0.520970 -0.707388 0.477695
98.42030334 10.27919769 27.36700058 0.686655 -0.617496 0.383671
98.37570190 10.28029633 27.36070061 0.207207 -0.918854 0.335817
98.39270020 10.28530121 27.36680031 0.261977 -0.503802 0.823135
98.41770172 10.28700256 27.36790085 0.646052 -0.639409 0.416861
98.42630005 10.29959869 27.36580086 0.614003 -0.726812 0.307807
98.31169891 10.30829620 27.36100006 -0.550024 -0.824298 0.134188
98.33129883 10.30899811 27.36709976 -0.717284 -0.694284 0.058935
98.40370178 10.30529785 27.36560059 0.579217 -0.698712 0.419891
98.43750000 10.30429840 27.36079979 0.682294 -0.669451 0.293788
98.41139984 10.31729889 27.36650085 0.598491 -0.733998 0.321023
98.44860077 10.31860352 27.36879921 0.720750 -0.600354 0.346546
98.46160126 10.31490326 27.36289978 0.808221 -0.539329 0.236439
98.26100159 10.32820129 27.36249924 -0.711987 -0.681495 -0.169230
98.28420258 10.33820343 27.36249924 -0.753421 -0.646427 -0.120369
98.45189667 10.33370209 27.36860085 0.700772 -0.700772 0.133552
98.26909637 10.34519958 27.36339951 -0.684625 -0.728884 0.004149
98.46469879 10.34899902 27.36660004 0.687150 -0.641449 0.341127
98.26100159 10.35430145 27.36619949 -0.726032 -0.686249 0.044045
98.48509979 10.35250092 27.36870003 0.590851 -0.684055 0.427743
98.50559998 10.35009766 27.36580086 0.908982 -0.376476 -0.178934
98.48139954 10.36199951 27.36650085 0.712345 -0.645413 0.275695
98.47509766 10.37930298 27.36630058 0.823759 -0.528363 0.205559
98.22750092 10.38629913 27.36470032 -0.760024 -0.638063 0.123448
98.50039673 10.38230133 27.36339951 0.875336 -0.479845 0.059462
98.20240021 10.39399719 27.36440086 -0.699858 -0.713884 -0.023843
98.50289917 10.39700317 27.36230087 0.884838 -0.455741 0.096757
98.51709747 10.39900208 27.36639977 0.913372 -0.387870 0.123729
98.52380371 10.41259766 27.36129951 0.901604 -0.426932 0.069564
98.51439667 10.42929840 27.36700058 0.943164 -0.315275 0.105092
98.52130127 10.42769623 27.36310005 0.970610 -0.206810 0.123071
98.18489838 10.43270111 27.36190033 -0.952105 -0.293055 0.087265
98.17179871 10.44210052 27.36170006 -0.882845 -0.468970 0.025531
98.18779755 10.45240021 27.36870003 -0.996780 -0.042209 0.068184
98.52069855 10.45459747 27.36479950 0.979611 -0.142062 0.142062
98.17299652 10.46070099 27.36650085 -0.999736 0.009043 -0.021100
98.19770050 10.46099854 27.36669922 -0.965457 0.250490 0.071748
98.18419647 10.51760101 27.36000061 -0.174654 0.955933 0.235983
98.52989960 10.53510284 27.36199951 0.965457 0.250490 -0.071748
98.21160126 10.55639648 27.36479950 -0.591215 0.797624 -0.119422
98.24099731 10.56800079 27.36190033 -0.891655 0.449241 0.055984
98.51689911 10.56479645 27.36370087 0.886806 0.452509 -0.093864
98.53330231 10.56340027 27.36380005 0.943365 0.273260 -0.188124
98.52510071 10.58910370 27.36949921 0.930051 0.239237 -0.278874
98.25469971 10.60410309 27.36359978 -0.969497 0.214738 0.118169
98.26110077 10.60340118 27.36660004 -0.984403 0.171657 -0.038535
98.27020264 10.61509705 27.36260033 -0.977338 0.092202 -0.190550
98.49349976 10.61280060 27.36800003 0.863346 0.469435 -0.185108
98.25499725 10.62789917 27.36230087 -0.918970 0.393844 -0.019497
98.49369812 10.62359619 27.36389923 0.900247 0.382496 -0.207973
98.51640320 10.62149811 27.36910057 0.871237 0.490324 0.022963
98.51689911 10.63359833 27.36389923 0.941344 0.289117 -0.174018
98.27030182 10.66149902 27.36510086 -0.694569 0.719425 -0.001381
98.36280060 10.66339874 27.36059952 -0.320946 0.941530 -0.102543
98.40319824 10.66320038 27.36590004 0.551909 0.562036 -0.616045
98.35500336 10.67749786 27.36350060 -0.363532 0.913819 -0.181053
98.38990021 10.68789673 27.36960030 0.284648 0.850867 -0.441589
98.44349670 10.68319702 27.36540031 0.446815 0.805549 0.389162
98.37190247 10.69190216 27.36739922 0.048763 0.981201 -0.186726
98.34529877 10.27780151 27.37949944 -0.515858 -0.855128 0.051447
98.37490082 10.27040100 27.37179947 0.037689 -0.999264 -0.007130
98.39299774 10.27729797 27.37479973 0.381989 -0.885315 0.265145
98.32060242 10.30339813 27.37010002 -0.677085 -0.732180 0.073943
98.42579651 10.30770111 27.37770081 0.578123 -0.704018 0.412472
98.31890106 10.31539917 27.37199974 -0.527904 -0.847167 0.060212
98.38999939 10.31929779 27.37940025 0.428099 -0.601337 -0.674630
98.43379974 10.31390381 27.37070084 0.681932 -0.697536 0.220028
98.28420258 10.32890320 27.37459946 -0.610710 -0.769892 -0.185203
98.44760132 10.34420013 27.37949944 0.784873 -0.614937 -0.076327
98.51390076 10.35559845 27.37680054 0.906772 -0.411419 0.092191
98.50409698 10.36360168 27.37870026 0.740708 -0.530485 0.412234
98.24220276 10.37449646 27.37590027 -0.683626 -0.651150 0.329635
98.47949982 10.37979889 27.37330055 0.826491 -0.461261 0.322725
98.48459625 10.37000275 27.37249947 0.555487 -0.609516 0.565618
98.20469666 10.38500214 27.37549973 -0.786144 -0.615552 -0.055442
98.18720245 10.39749908 27.37630081 -0.810408 -0.580912 0.076021
98.24150085 10.39779663 27.37560081 -0.791768 -0.600804 0.110172
98.49079895 10.39179993 27.37330055 0.873569 -0.449306 0.187088
98.21369934 10.40609741 27.37439919 -0.450700 -0.888918 0.081819
98.20529938 10.41380310 27.37319946 -0.451155 -0.886849 0.099788
98.50099945 10.42800140 27.37899971 0.874395 -0.381692 0.299575
98.19589996 10.43029785 27.37100029 -0.900074 -0.433169 0.047230
98.50610352 10.43479919 27.37490082 0.875670 -0.158815 0.456048
98.52459717 10.45610046 27.37879944 0.877652 -0.476597 -0.050819
98.18029785 10.47149658 27.37949944 -0.962266 0.201405 0.182975
98.19550323 10.47750092 27.37450027 -0.941631 0.326203 -0.083202
98.17659760 10.49400330 27.37919998 -0.951235 0.207026 0.228675
98.19049835 10.49459839 27.37630081 -0.982754 0.158353 0.095495
98.21690369 10.50900269 27.37730026 -0.741804 0.622107 -0.250418
98.19129944 10.51760101 27.37509918 -0.809029 0.585165 0.055258
98.23470306 10.51080322 27.37639999 -0.907575 0.033220 0.418574
98.53389740 10.51770020 27.37129974 0.998339 -0.047440 0.032681
98.22260284 10.54470062 27.37599945 -0.908131 0.414259 0.060722
98.23470306 10.54989624 27.37000084 -0.778811 0.625042 -0.052680
98.53359985 10.54239655 27.37299919 0.974713 0.217277 -0.052195
98.24620056 10.55970001 27.37700081 -0.850074 0.526366 -0.017682
98.54049683 10.55390167 27.37689972 0.967083 0.254115 -0.013248
98.25379944 10.57759857 27.37680054 -0.948031 0.316852 0.029034
98.24310303 10.58509827 27.37870026 -0.946870 0.314760 -0.066061
98.23950195 10.59449768 27.37260056 -0.976335 0.209301 0.054442
98.26360321 10.59570313 27.37669945 -0.982049 0.073144 -0.173867
98.49379730 10.60479736 27.37109947 0.890596 0.415417 -0.185116
98.51889801 10.60070038 27.37929916 0.939302 0.300302 -0.165921
98.51339722 10.61129761 27.37509918 0.884841 0.428526 -0.182818
98.25659943 10.63279724 27.37929916 -0.955260 0.261007 -0.139116
98.26149750 10.65119934 27.37310028 -0.781204 0.607935 -0.141901
98.27619934 10.65229797 27.37820053 -0.548180 0.832949 -0.075464
98.29319763 10.65360260 27.37129974 -0.402442 0.905141 0.136971
98.30390167 10.65339661 27.37940025 -0.258169 0.932512 0.252526
98.48480225 10.65249634 27.37949944 0.655172 0.755325 -0.015301
98.50000000 10.65270233 27.37759972 0.806626 0.590788 0.017987
98.30079651 10.66210175 27.37430000 -0.223729 0.950508 0.215593
98.42590332 10.66120148 27.37709999 0.111622 0.839343 0.532019
98.48419952 10.66269684 27.37540054 0.552494 0.832238 -0.046158
98.29429626 10.67220306 27.37709999 -0.181874 0.964327 0.192342
98.32869720 10.67040253 27.37540054 -0.307617 0.950701 -0.039243
98.33270264 10.67890167 27.37730026 -0.626939 0.653547 -0.424057
98.41235352 10.68339920 27.37625122 0.208237 0.948635 -0.238179
98.36830139 10.69570160 27.37840080 -0.092355 0.967828 -0.234050
98.38860321 10.69550323 27.37750053 0.459958 0.820337 -0.339831
98.32489777 10.71540070 27.37590027 -0.838714 -0.236795 0.490395
98.34570313 10.25679779 27.38579941 -0.032496 -0.991702 0.124383
98.35939789 10.26319885 27.38879967 0.097047 -0.993898 0.052428
98.34570313 10.27339935 27.38260078 -0.376261 -0.920814 0.102617
98.37699890 10.27079773 27.38579941 0.128189 -0.989714 0.063517
98.41699982 10.28810120 27.38990021 0.752148 -0.621339 0.219571
98.33650208 10.29720306 27.38730049 -0.691991 -0.718104 -0.073987
98.34030151 10.30429840 27.38520050 -0.675026 -0.706205 -0.213576
98.40070343 10.30249786 27.38459969 0.618368 -0.706473 0.344263
98.29380035 10.31390381 27.38579941 -0.576438 -0.813878 -0.072949
98.43450165 10.31089783 27.38179970 0.615746 -0.734097 0.286282
98.30760193 10.32019806 27.38190079 -0.535618 -0.842087 -0.063262
98.44139862 10.32240295 27.38170052 0.641026 -0.757036 0.126421
98.28479767 10.33364868 27.38755035 -0.758770 -0.651358 0.001377
98.45819855 10.33319855 27.38769913 0.687287 -0.711455 0.146520
98.26599884 10.34829712 27.38330078 -0.842925 -0.537892 0.012256
98.22450256 10.35379791 27.38299942 -0.719451 -0.694305 0.018161
98.46450043 10.35500336 27.38549995 0.849950 -0.516298 0.104985
98.24860382 10.36440277 27.38299942 -0.713228 -0.698934 -0.052885
98.25920105 10.37950134 27.38089943 -0.796996 -0.583864 0.154596
98.47465515 10.37630081 27.38579941 0.700928 -0.656222 0.279413
98.49320221 10.37689972 27.38949966 0.750700 -0.510870 0.418881
98.22070313 10.38580322 27.38059998 -0.623520 -0.676445 0.391974
98.23449707 10.38269806 27.38170052 -0.675430 -0.685011 0.273046
98.50980377 10.38619995 27.38249969 0.771751 -0.594730 0.225159
98.19319916 10.39550018 27.38129997 -0.728854 -0.675631 0.110880
98.21939850 10.40270233 27.38139915 -0.564001 -0.805932 0.179936
98.22460175 10.40019989 27.38649940 -0.517524 -0.835539 0.184509
98.51390076 10.40779877 27.38030052 0.899318 -0.407481 0.158703
98.19629669 10.41300201 27.38719940 -0.726658 -0.593356 0.346260
98.24240112 10.41324997 27.38145065 -0.713762 -0.653623 0.251637
98.49120331 10.41359711 27.38610077 0.908836 -0.396303 0.130234
98.19409943 10.42579651 27.38599968 -0.819424 -0.528414 0.222087
98.21340179 10.42150116 27.38920021 -0.325489 -0.710893 0.623448
98.23459625 10.42549896 27.38229942 -0.322922 -0.177537 0.929624
98.17209625 10.46399689 27.38649940 -0.952522 0.270436 0.139881
98.53140259 10.46759796 27.38479996 0.967235 -0.058357 -0.247086
98.52980042 10.49629974 27.38739967 0.979515 -0.132167 0.151930
98.17639923 10.50930023 27.38010025 -0.928660 -0.186292 0.320759
98.19400024 10.50399780 27.38719940 -0.855537 0.512760 0.071646
98.22910309 10.50859833 27.38540077 -0.603716 0.781369 0.158080
98.54530334 10.52040100 27.38730049 0.999299 -0.011228 -0.035726
98.54385376 10.53180313 27.38064957 0.992924 0.078121 -0.089442
98.23739624 10.54940033 27.37999916 -0.807423 0.588365 -0.043531
98.54039764 10.54100037 27.38809967 0.970335 0.241691 -0.005953
98.52290344 10.56649780 27.38069916 0.971241 0.228891 -0.065574
98.26789856 10.58910370 27.38579941 -0.981185 0.148219 -0.123720
98.52989960 10.59829712 27.38540077 0.980283 0.196057 0.024654
98.24069977 10.60369873 27.38249969 -0.973381 0.208136 0.095967
98.25299835 10.61979675 27.38339996 -0.983577 0.179147 -0.021960
98.50419617 10.61640167 27.38800049 0.832401 0.553553 0.026228
98.51689911 10.61139679 27.38820076 0.889364 0.457199 0.001318
98.48739624 10.62229919 27.38890076 0.818668 0.573207 0.034867
98.49960327 10.63480377 27.38879967 0.886908 0.456558 0.070346
98.51339722 10.63169861 27.38489914 0.859740 0.510428 -0.017601
98.48419952 10.64029694 27.38470078 0.731105 0.660895 0.169421
98.33439636 10.65399933 27.38260078 -0.307228 0.951537 -0.013682
98.44850159 10.65920258 27.38920021 0.329980 0.877412 0.348227
98.29019928 10.66010284 27.38019943 -0.263474 0.954597 0.139019
98.32279968 10.67030334 27.38529968 -0.519750 0.853382 -0.039981
98.34870148 10.67620087 27.38540077 -0.661414 0.618097 -0.424838
98.39330292 10.68619919 27.38714981 0.265033 0.895783 -0.356833
98.42430115 10.68049622 27.38890076 0.433412 0.888423 -0.151190
98.34609985 10.69699860 27.38619995 -0.521975 0.679742 -0.515261
98.36270142 10.69699860 27.38529968 0.008454 0.965007 -0.262086
98.33309937 10.25599670 27.39669991 -0.391878 -0.862132 0.321186
98.33270264 10.27339935 27.39049911 -0.749076 -0.643146 0.158895
98.34429932 10.27380371 27.39559937 -0.432622 -0.884179 0.176253
98.32379913 10.28919983 27.39030075 -0.888422 -0.457097 0.042047
98.36109924 10.28089905 27.39159966 -0.242926 -0.965343 -0.095390
98.40480042 10.28869629 27.39780045 0.708624 -0.702874 0.061807
98.31980133 10.29730225 27.39119911 -0.673428 -0.704678 -0.223434
98.33159637 10.30490112 27.39719963 -0.743534 -0.602822 -0.289419
98.29100037 10.31459808 27.39679909 -0.704014 -0.694969 -0.146230
98.26770020 10.32700348 27.39949989 -0.750960 -0.654720 0.086032
98.30570221 10.32869720 27.39380074 -0.585783 -0.810126 0.023542
98.26309967 10.35839844 27.39119911 -0.817824 -0.575097 -0.020687
98.47640228 10.35679626 27.39060020 0.796020 -0.586934 0.147854
98.27320099 10.36479950 27.39220047 -0.762476 -0.639543 0.098054
98.48130035 10.36589813 27.39749908 0.747070 -0.651254 0.133245
98.25499725 10.38410187 27.39690018 -0.658657 -0.751744 0.032439
98.49690247 10.38410187 27.39439964 0.692939 -0.710821 0.120705
98.21520233 10.39080048 27.39850044 -0.645548 -0.721309 0.250959
98.24040222 10.39019775 27.39369965 -0.753781 -0.647156 0.114030
98.49569702 10.40470123 27.39319992 0.875899 -0.481812 -0.025643
98.51229858 10.40460205 27.39830017 0.882306 -0.469022 0.039425
98.17739868 10.41290283 27.39609909 -0.773488 -0.521579 0.360100
98.51899719 10.42199707 27.39719963 0.944922 -0.326749 -0.018924
98.52709961 10.43540192 27.39809990 0.927460 -0.309153 -0.210337
98.17379761 10.44259644 27.39069939 -0.959249 -0.276779 0.056872
98.16419983 10.45495224 27.39554977 -0.982214 0.163098 0.093026
98.18190002 10.45610046 27.39259911 -0.996364 0.053357 0.066424
98.18869781 10.46399689 27.39660072 -0.985847 0.143547 0.086603
98.20259857 10.46820068 27.39669991 -0.996348 0.053473 0.066569
98.55639648 10.46939850 27.39389992 0.899331 0.001305 -0.437266
98.53099823 10.47579956 27.39469910 0.934544 -0.037589 -0.353856
98.17849731 10.50969696 27.39809990 -0.855276 0.409852 0.317055
98.53659821 10.50779724 27.39340019 0.982002 0.105605 0.156586
98.53189850 10.52269745 27.39319992 0.993988 -0.025262 0.106538
98.53060150 10.53970337 27.39900017 0.981048 0.155159 0.116064
98.20939636 10.54129791 27.39690018 -0.796832 0.604161 0.006881
98.22830200 10.55449677 27.39690018 -0.688018 0.717610 0.108011
98.24299622 10.55560303 27.39800072 -0.701011 0.697996 0.146233
98.53089905 10.55400085 27.39189911 0.958842 0.283876 -0.006092
98.24980164 10.56340027 27.39500046 -0.760344 0.634370 0.139471
98.51010132 10.57749939 27.39150047 0.943355 0.249266 -0.218969
98.52739716 10.57440186 27.39959908 0.958191 0.263925 0.110511
98.24299622 10.58159637 27.39669991 -0.962777 0.269675 -0.018304
98.52839661 10.58209991 27.39450073 0.960937 0.262306 0.088289
98.53220367 10.58920288 27.39049911 0.959610 0.262181 0.102031
98.25195313 10.60570145 27.39355087 -0.981413 0.113381 -0.154832
98.30989838 10.63849640 27.39959908 -0.314053 0.936673 0.154969
98.48609924 10.64299774 27.39959908 0.847309 0.487845 0.209939
98.49749756 10.64179993 27.39270020 0.823973 0.563024 0.063819
98.28579712 10.65399933 27.39830017 -0.247332 0.931383 0.267119
98.43920135 10.65689850 27.39819908 0.729401 0.579278 -0.363884
98.44799805 10.65059662 27.39229965 0.013616 0.298318 0.954369
98.49340057 10.65940094 27.39550018 0.858167 0.513284 0.009430
98.26709747 10.66100311 27.39209938 -0.462378 0.874024 0.149294
98.30039978 10.66079712 27.39030075 -0.238890 0.971011 0.008320
98.42970276 10.66259766 27.39109993 0.501731 0.860717 -0.086213
98.47709656 10.66449738 27.39539909 0.172392 0.984604 -0.028925
98.29270172 10.67350006 27.39590073 -0.444895 0.876575 -0.183537
98.31369781 10.67530060 27.39475060 -0.486172 0.873484 -0.025731
98.38749695 10.67859650 27.39970016 0.063743 0.997940 0.007315
98.35679626 10.68389893 27.39839935 -0.167087 0.984994 0.043232
98.39499664 10.68920135 27.39959908 0.097548 0.988406 -0.116352
98.33129883 10.69599915 27.39310074 -0.756920 0.640470 0.129886
98.39279938 10.69249725 27.39349937 0.165344 0.983736 -0.070182
98.40760040 10.69360352 27.39459991 0.461814 0.841768 -0.279560
98.37069702 10.25279999 27.39999962 0.061798 -0.977859 0.199934
98.36789703 10.26650238 27.40880013 0.087740 -0.988541 0.122836
98.35469818 10.27230072 27.40970039 -0.150971 -0.976942 0.150971
98.36350250 10.27909851 27.40660095 -0.181704 -0.972050 0.148667
98.32140350 10.28549957 27.40629959 -0.729614 -0.645247 -0.226540
98.37899780 10.28070068 27.40369987 0.367656 -0.929954 -0.003817
98.29100037 10.30529785 27.40889931 -0.609614 -0.771566 -0.181815
98.45279694 10.33239746 27.40570068 0.743722 -0.667225 0.041082
98.26270294 10.34410095 27.40830040 -0.633391 -0.767968 -0.095082
98.28199768 10.34919739 27.40139961 -0.852027 -0.515212 0.092767
98.47730255 10.35169983 27.40959930 0.874096 -0.475881 0.097436
98.24569702 10.36889648 27.40699959 -0.804439 -0.590871 0.061223
98.25669861 10.36280060 27.40609932 -0.805478 -0.590306 0.052377
98.26409912 10.37349701 27.40699959 -0.742306 -0.669886 -0.015320
98.28739929 10.37049866 27.40620041 -0.708234 -0.686910 0.162970
98.46749878 10.37270355 27.40830040 0.861548 -0.462988 0.208270
98.47640228 10.38659668 27.40119934 0.791083 -0.607311 0.073222
98.50879669 10.38230133 27.40049934 0.799991 -0.536980 0.267707
98.21250153 10.39869690 27.40139961 -0.640012 -0.688868 0.340362
98.23680115 10.39040375 27.40369987 -0.733055 -0.679996 0.015359
98.49030304 10.39070129 27.40229988 0.676577 -0.679776 0.283107
98.51940155 10.40090179 27.40139961 0.834101 -0.543102 0.096519
98.19879913 10.41840363 27.40209961 -0.675367 -0.688080 0.265379
98.22530365 10.41030121 27.40239906 -0.691313 -0.722162 0.023838
98.20469666 10.42579651 27.40810013 -0.861504 -0.458567 0.218007
98.17350006 10.43190002 27.40279961 -0.869512 -0.434005 0.235774
98.53620148 10.43419647 27.40309906 0.932669 -0.357109 -0.051016
98.18849945 10.44380188 27.40080070 -0.949375 -0.277964 0.146368
98.20449829 10.44110107 27.40889931 -0.853402 -0.503288 0.135669
98.20480347 10.45909882 27.40979958 -0.947599 -0.163566 0.274412
98.53359985 10.45860291 27.40390015 0.888405 -0.412631 -0.201176
98.54370117 10.45200348 27.40299988 0.826210 -0.526046 -0.201626
98.51270294 10.46540070 27.40069962 0.991410 -0.102243 -0.081564
98.17530060 10.47570038 27.40139961 -0.985543 0.162504 0.047933
98.19640350 10.47979736 27.40850067 -0.970852 0.081008 0.225577
98.50949860 10.47419739 27.40850067 0.995375 -0.090687 0.031686
98.55010223 10.47740173 27.40080070 0.967518 0.148155 -0.204841
98.52120209 10.49109650 27.40740013 0.997312 -0.046162 0.056897
98.54399872 10.49259949 27.40760040 0.986112 0.084050 -0.143241
98.20529938 10.50309753 27.40130043 -0.924605 0.379023 0.038033
98.53070068 10.50420380 27.40439987 0.990101 0.116959 0.077587
98.54299927 10.51090240 27.40539932 0.981917 0.183591 0.046194
98.21589661 10.53849792 27.40699959 -0.780479 0.616476 -0.103966
98.53130341 10.53299713 27.40309906 0.985147 0.099353 0.140051
98.23889923 10.56020355 27.40390015 -0.737124 0.675109 0.029598
98.51544952 10.56624985 27.40065002 0.972945 0.140438 0.183455
98.25160217 10.57180023 27.40189934 -0.924105 0.377862 0.057011
98.25820160 10.59860229 27.40970039 -0.998267 0.051544 0.028402
98.50949860 10.60810089 27.40220070 0.907259 0.416557 0.057968
98.25489807 10.61309814 27.40349960 -0.951347 0.217876 -0.217876
98.50209808 10.62349701 27.40299988 0.814180 0.579562 0.034913
98.46340179 10.63569641 27.40559959 0.334810 0.845590 0.415787
98.51529694 10.63800049 27.40889931 0.929942 0.367651 -0.006361
98.25630188 10.64250183 27.40920067 -0.828410 0.559212 0.031915
98.27319336 10.64545059 27.40665054 -0.529705 0.839064 0.124036
98.29840088 10.64910126 27.40740013 -0.286194 0.945390 0.155983
98.27790070 10.66449738 27.40810013 -0.297288 0.882809 0.363687
98.31210327 10.66490173 27.40130043 -0.438562 0.892536 -0.105087
98.33339691 10.66310120 27.40349960 -0.562813 0.821908 0.087805
98.40489960 10.67549896 27.40880013 0.242819 0.959464 -0.143066
98.34580231 10.68640137 27.40629959 -0.399926 0.871321 0.284358
98.33760071 10.70919800 27.40069962 0.380394 0.903977 0.195259
98.35079956 10.70269775 27.40320015 -0.187320 0.978225 0.089375
98.32820129 10.27680206 27.41040039 -0.622109 -0.782832 0.012470
98.36119843 10.27890015 27.41460037 -0.070475 -0.990110 0.121309
98.38809967 10.27580261 27.41080093 0.408585 -0.911663 0.043920
98.39790344 10.27149963 27.41790009 0.474096 -0.880464 0.003984
98.33350372 10.28510284 27.41839981 -0.568170 -0.822819 0.012322
98.41000366 10.30650330 27.41869926 0.848272 -0.525788 0.063095
98.28759766 10.31990051 27.41970062 -0.687995 -0.712082 0.140008
98.30729675 10.31690216 27.41189957 -0.820165 -0.569754 -0.052052
98.26869965 10.32910156 27.41749954 -0.636913 -0.749938 0.178702
98.42810059 10.32270050 27.41060066 0.499731 -0.831860 0.241408
98.44979858 10.32589722 27.41069984 0.706796 -0.706796 0.029626
98.26059723 10.34179688 27.41930008 -0.747327 -0.664444 0.004144
98.47160339 10.34570313 27.41360092 0.815719 -0.545331 0.192917
98.22740173 10.35489655 27.41099930 -0.855076 -0.383310 0.349169
98.24800110 10.35980225 27.41810036 -0.833922 -0.551880 -0.001356
98.47000122 10.36489868 27.41440010 0.839317 -0.490748 0.233908
98.23390198 10.37449646 27.41679955 -0.758117 -0.649200 0.061624
98.45829773 10.37770081 27.41819954 0.897745 -0.347562 0.270655
98.48840332 10.37889862 27.41139984 0.712647 -0.632213 0.304041
98.24079895 10.38600159 27.41080093 -0.734042 -0.676807 0.055804
98.25270081 10.38770294 27.41480064 -0.742478 -0.669217 -0.029586
98.23760223 10.39469910 27.41360092 -0.690123 -0.723583 0.012548
98.51629639 10.39089966 27.41850090 0.799337 -0.570955 0.187273
98.20729828 10.40499878 27.41830063 -0.736618 -0.673191 0.064869
98.21890259 10.41840363 27.41729927 -0.751329 -0.655785 0.073830
98.20169830 10.42870331 27.41410065 -0.815417 -0.541071 0.205759
98.51529694 10.44830322 27.41390038 0.957689 -0.282120 0.056930
98.19319916 10.45880127 27.41270065 -0.923046 -0.197087 0.330368
98.17739868 10.46309662 27.41749954 -0.947077 -0.026554 0.319907
98.54689789 10.46009827 27.41189957 0.914894 -0.403592 -0.009084
98.18659973 10.47840118 27.41340065 -0.935177 0.173181 0.308955
98.18099976 10.48909760 27.41729927 -0.969968 0.220734 0.102168
98.55345154 10.48150253 27.41474915 0.989638 0.032950 -0.139754
98.19450378 10.49759674 27.41029930 -0.946804 0.260201 0.189361
98.52400208 10.50720215 27.41430092 0.995916 -0.079630 0.042542
98.19290161 10.51319885 27.41410065 -0.939932 0.308777 0.145547
98.21040344 10.51730347 27.41920090 -0.755174 0.637602 -0.152241
98.53600311 10.51260376 27.41729927 0.979561 0.154019 -0.129376
98.51059723 10.52829742 27.41399956 0.939396 0.339837 -0.045225
98.54540253 10.52210236 27.41629982 0.964208 0.264517 0.018285
98.22609711 10.53919983 27.41909981 -0.566634 0.783242 0.255848
98.23390198 10.53820038 27.41410065 -0.632657 0.744577 0.212958
98.51799774 10.53890228 27.41189957 0.981300 0.178964 0.070865
98.21900177 10.55599976 27.41679955 -0.542954 0.835203 0.087388
98.53510284 10.56050110 27.41080093 0.977028 0.213106 -0.001165
98.25370026 10.57219696 27.41390038 -0.872386 0.488802 0.003996
98.51650238 10.58779907 27.41340065 0.932182 0.345002 0.109589
98.52469635 10.59539795 27.41139984 0.909203 0.407290 0.086395
98.47679901 10.62779999 27.41869926 0.644695 0.756816 0.107695
98.49839783 10.62370300 27.41390038 0.519153 0.795399 0.312762
98.49729919 10.63849640 27.41580009 0.850932 0.480437 0.212356
98.33010101 10.66819763 27.41340065 -0.590235 0.806886 -0.023609
98.48519897 10.66860199 27.41340065 0.523853 0.840806 -0.136466
98.35630035 10.67549896 27.41850090 -0.299554 0.937313 0.178076
98.31909943 10.68730164 27.41010094 -0.645524 0.694059 0.318717
98.32949829 10.68209839 27.41419983 -0.620125 0.776261 0.113420
98.43440247 10.68499756 27.41790009 0.517260 0.786299 -0.337900
98.37169647 10.69960022 27.41930008 -0.252952 0.965705 0.058565
98.40640259 10.69909668 27.41460037 0.220266 0.952686 -0.209456
98.38610077 10.70510101 27.41139984 0.129113 0.980028 -0.151246
98.34410095 10.27410126 27.42160034 -0.169407 -0.962600 0.211431
98.37509918 10.28320313 27.42770004 0.011977 -0.994101 0.107794
98.28679657 10.29329681 27.42600060 0.051818 -0.833295 -0.550395
98.31990051 10.29900360 27.42219925 -0.695361 -0.717928 -0.032441
98.41880035 10.30750275 27.42469978 0.724004 -0.662255 -0.192965
98.42230225 10.30030060 27.42679977 0.775551 -0.623654 -0.097857
98.29620361 10.31950378 27.42280006 -0.731721 -0.623318 0.275790
98.44229889 10.31169891 27.42280006 0.589632 -0.579495 0.562600
98.45529938 10.32839966 27.42770004 0.664449 -0.747332 -0.001381
98.40119934 10.33889771 27.42029953 0.940620 0.338928 0.019041
98.44169617 10.33869934 27.42749977 0.590344 -0.735908 0.331563
98.24680328 10.34860229 27.42919922 -0.809104 -0.540944 0.229631
98.28160095 10.34809875 27.42140007 -0.623799 -0.778673 -0.067399
98.30030060 10.34100342 27.42259979 -0.886569 -0.452388 -0.096640
98.45230103 10.34429932 27.42449951 0.767288 -0.626693 0.136108
98.26339722 10.35430145 27.42420006 -0.844467 -0.531493 0.066260
98.48179626 10.35949707 27.42760086 0.883935 -0.441244 -0.154797
98.28189850 10.36609650 27.42819977 -0.647874 -0.760793 0.038110
98.25109863 10.37729645 27.42490005 -0.803173 -0.588219 0.094405
98.25559998 10.38130188 27.42390060 -0.676116 -0.735648 -0.041106
98.50060272 10.39520264 27.42429924 0.521588 -0.820079 0.235407
98.21459961 10.41220093 27.42729950 -0.788643 -0.613074 0.046724
98.49590302 10.42299652 27.42200089 0.762770 -0.618504 0.188774
98.51439667 10.43479919 27.42200089 0.915956 -0.397137 -0.057498
98.52919769 10.43949890 27.42499924 0.874641 -0.484725 0.006677
98.17710114 10.45240021 27.42869949 -0.944606 -0.167657 0.282155
98.53330231 10.46469879 27.42779922 0.972499 -0.209558 -0.101642
98.53829956 10.47740173 27.42569923 0.997071 -0.075231 0.013775
98.54540253 10.47360229 27.42679977 0.930766 -0.264117 0.252818
98.18949890 10.48690033 27.42250061 -0.954293 0.208625 0.214009
98.53260040 10.49739838 27.42449951 0.975581 -0.082635 -0.203503
98.20339966 10.51170349 27.42020035 -0.839064 0.529705 -0.124036
98.23719788 10.51429749 27.42440033 -0.515092 -0.294563 0.804930
98.23519897 10.52130127 27.42029953 -0.743311 -0.473016 0.473016
98.52459717 10.52670288 27.42110062 0.994925 0.049802 -0.087429
98.20429993 10.53250122 27.42300034 -0.789767 0.573393 -0.217920
98.53820038 10.53890228 27.42210007 0.996016 0.083453 -0.031430
98.21479797 10.54389954 27.42289925 -0.633874 0.755481 0.165689
98.54419708 10.54630280 27.42099953 0.976356 0.214727 -0.024913
98.25749969 10.55690002 27.42309952 -0.848828 0.528668 0.001345
98.51719666 10.57180023 27.42359924 0.964988 0.247270 -0.087496
98.24639893 10.58550262 27.42970085 -0.973740 0.207681 0.093270
98.24430084 10.60189819 27.42650032 -0.972960 0.119575 0.197613
98.50019836 10.60959625 27.42510033 0.696206 0.637783 0.329440
98.51229858 10.61849976 27.42609978 0.737718 0.630757 0.240663
98.24980164 10.62670135 27.42429924 -0.951469 0.278122 0.131742
98.51380157 10.63490295 27.42490005 0.871947 0.462994 0.159200
98.27680206 10.64389801 27.42329979 -0.259495 0.866502 0.426422
98.47350311 10.64230347 27.42160034 0.865631 0.370545 0.336720
98.48739624 10.65959930 27.42449951 0.732088 0.644675 0.220095
98.31950378 10.66989899 27.42429924 -0.504004 0.861414 0.062826
98.48560333 10.66790009 27.42740059 0.399786 0.912822 -0.083232
98.37760162 10.67729950 27.42460060 -0.261285 0.957169 0.124734
98.43389893 10.67639923 27.42000008 0.490670 0.808255 -0.325525
98.44200134 10.68049622 27.42499924 0.509755 0.832347 -0.217597
98.34549713 10.69609833 27.42720032 -0.251358 0.887934 0.385218
98.37570190 10.69149780 27.42539978 -0.200581 0.972627 0.117321
98.39820099 10.69159698 27.42160034 0.129902 0.978598 -0.159594
98.38150024 10.70480347 27.42729950 -0.335178 0.940325 -0.058689
98.40509796 10.70680237 27.42849922 0.292576 0.846767 -0.444282
98.38079834 10.26679993 27.43289948 0.054346 -0.994863 0.085401
98.35430145 10.27480316 27.43359947 -0.184137 -0.977534 0.102573
98.37409973 10.27919769 27.43670082 -0.007116 -0.999341 0.035582
98.33180237 10.28420258 27.43440056 -0.262658 -0.957854 0.116302
98.39250183 10.28379822 27.43580055 0.518752 -0.824800 -0.224946
98.30729675 10.29830170 27.43709946 -0.799623 -0.597942 -0.055391
98.43540192 10.30760193 27.43580055 0.393299 -0.781743 -0.483936
98.30149841 10.31109619 27.43289948 -0.929851 -0.308075 0.201163
98.30819702 10.32849884 27.43880081 -0.712527 -0.652224 0.258668
98.41590118 10.32710266 27.43449974 0.716963 -0.422230 0.554694
98.44219971 10.32489777 27.43670082 0.609810 -0.788572 -0.079290
98.25900269 10.33509827 27.43740082 -0.798454 -0.588100 0.128878
98.28019714 10.33910370 27.43549919 -0.603114 -0.792042 0.094464
98.30359650 10.33020020 27.43169975 -0.684018 -0.680843 0.261863
98.44809723 10.34529877 27.43650055 0.696874 -0.716584 -0.029564
98.27359772 10.35870361 27.43820000 -0.744683 -0.659155 0.104698
98.24790192 10.36000061 27.43610001 -0.748183 -0.638021 0.182073
98.26159668 10.36630249 27.43309975 -0.740112 -0.663294 0.110795
98.46569824 10.36239624 27.43339920 0.846051 -0.485836 -0.219459
98.22930145 10.38729858 27.43269920 -0.728873 -0.683408 0.041203
98.24980164 10.38490295 27.43079948 -0.751283 -0.659967 0.004151
98.25419617 10.38169861 27.43289948 -0.762216 -0.645826 0.044001
98.46890259 10.38349915 27.43820000 0.895824 -0.430388 -0.110751
98.49130249 10.39289856 27.43230057 0.863130 -0.501755 0.056986
98.22930145 10.40399933 27.43849945 -0.673708 -0.738407 -0.029536
98.51210022 10.40869904 27.43720055 0.807947 -0.581664 0.094285
98.51180267 10.41670227 27.43320084 0.829374 -0.529420 0.178473
98.19219971 10.42880249 27.43099976 -0.862278 -0.502880 -0.059900
98.52459717 10.42250061 27.43120003 0.796904 -0.595119 0.103817
98.20580292 10.43160248 27.43709946 -0.881887 -0.466555 -0.067837
98.52510071 10.43479919 27.43810081 0.830816 -0.556166 0.020599
98.18170166 10.44709778 27.43670082 -0.980223 -0.196045 -0.027000
98.52950287 10.44460297 27.43499947 0.916649 -0.386174 0.103071
98.18879700 10.45639801 27.43569946 -0.985221 -0.171195 0.005669
98.20320129 10.45249939 27.43479919 -0.995751 -0.077776 0.049295
98.54740143 10.45369720 27.43799973 0.960442 -0.202129 0.191560
98.52719879 10.46690369 27.43470001 0.946846 -0.226092 -0.228833
98.17070007 10.47920227 27.43429947 -0.962250 0.238284 0.131512
98.21579742 10.47720337 27.43860054 -0.991535 -0.067475 0.110933
98.19960022 10.48220062 27.43250084 -0.990669 0.133813 -0.025863
98.51460266 10.48850250 27.43440056 0.920200 -0.263532 -0.289453
98.55059814 10.48780060 27.43770027 0.945530 -0.107719 0.307197
98.54250336 10.49310303 27.43160057 0.993561 -0.064137 0.093393
98.19400024 10.50590134 27.43569946 -0.975089 0.205866 -0.082593
98.53369904 10.51249695 27.43230057 0.972871 0.027659 -0.229689
98.54560089 10.51419830 27.43840027 0.997869 0.052072 -0.039320
98.19509888 10.53029633 27.43300056 -0.814826 0.572541 -0.090857
98.20089722 10.53410339 27.43499947 -0.692939 0.710821 0.120705
98.53220367 10.53160095 27.43009949 0.983437 0.107394 -0.146007
98.51989746 10.55470276 27.43379974 0.930297 0.247796 -0.270452
98.53199768 10.55410004 27.43490028 0.933438 0.299984 -0.196733
98.24949646 10.56020355 27.43000031 -0.832587 0.553691 -0.015039
98.24970245 10.57109833 27.43490028 -0.949663 0.313252 0.003714
98.25759888 10.59400177 27.43770027 -0.961730 0.150475 0.228983
98.49900055 10.59480286 27.43519974 0.782837 0.577401 0.231894
98.53230286 10.59470367 27.43840027 0.866091 0.496299 0.059778
98.48919678 10.61569977 27.43099976 0.851221 0.521355 0.060103
98.47840118 10.62899780 27.43169975 0.704328 0.709863 0.004151
98.50630188 10.62429810 27.43499947 0.861761 0.498317 0.095120
98.26280212 10.63990021 27.43729973 -0.971413 0.230234 0.057866
98.34205627 10.66864777 27.43080139 -0.124425 0.987103 0.100725
98.45169830 10.66539764 27.43219948 0.391242 0.919877 -0.027479
98.34870148 10.67800140 27.43440056 -0.252479 0.958896 0.129510
98.45200348 10.67980194 27.43210030 0.445417 0.889428 0.102572
98.38269806 10.68430328 27.43460083 -0.393390 0.917015 0.065789
98.39379883 10.69850159 27.43549919 -0.390542 0.907477 -0.154797
98.40859985 10.69010162 27.43070030 0.276148 0.959584 -0.054221
98.38459778 10.71099854 27.43079948 -0.791724 0.573424 0.210614
98.33650208 10.27310181 27.44249916 -0.269266 -0.962720 0.025820
98.35340118 10.27439880 27.44860077 -0.221769 -0.975082 -0.005867
98.39080048 10.27339935 27.44589996 0.223059 -0.974541 -0.022664
98.32839966 10.30239868 27.44820023 -0.487148 -0.862324 0.138146
98.40820313 10.30570221 27.44269943 0.910731 -0.385472 0.148259
98.41829681 10.31210327 27.44070053 0.810765 0.179667 0.557118
98.27660370 10.33350372 27.44849968 -0.561910 -0.827143 -0.009570
98.42040253 10.33489990 27.44239998 0.565582 -0.813670 0.134381
98.27670288 10.34639740 27.44239998 -0.629351 -0.736609 0.247639
98.29959869 10.34210205 27.44459915 -0.757002 -0.652295 0.038204
98.46479797 10.34889984 27.44260025 0.756626 -0.635807 -0.152533
98.26470184 10.35780334 27.44720078 -0.797363 -0.590255 0.125744
98.26699829 10.37830353 27.44899940 -0.760666 -0.648597 0.026616
98.22859955 10.38459778 27.44269943 -0.677445 -0.734254 -0.044027
98.21060181 10.39800262 27.44540024 -0.641168 -0.570488 -0.513271
98.47509766 10.39230347 27.44319916 0.793193 -0.576173 -0.197152
98.23789978 10.40350342 27.44260025 -0.631970 -0.769164 -0.094868
98.48750305 10.40260315 27.44619942 0.800910 -0.584768 -0.128797
98.20539856 10.41719818 27.44020081 -0.751329 -0.655785 -0.073830
98.47560120 10.41390228 27.44400024 0.652241 -0.700318 -0.290063
98.49580383 10.41010284 27.44009972 0.761966 -0.643406 0.073739
98.53579712 10.43099976 27.44519997 0.894100 -0.447710 -0.011886
98.54260254 10.43890381 27.44809914 0.953314 -0.298307 0.046968
98.52300262 10.46790314 27.44770050 0.912501 -0.157035 0.377733
98.53720093 10.46980286 27.44179916 0.921435 -0.093913 0.377012
98.19529724 10.47959900 27.44449997 -0.997747 0.054306 0.039399
98.52330017 10.48410034 27.44449997 0.947926 -0.288266 0.135418
98.53510284 10.49349976 27.44949913 0.968064 -0.161129 0.192066
98.54840088 10.49120331 27.44759941 0.863495 -0.383262 0.327851
98.55840302 10.50350189 27.44459915 0.991935 0.078761 0.099308
98.19840240 10.51950073 27.44709969 -0.762246 0.629943 0.148841
98.20240021 10.51499939 27.44319916 -0.925095 0.379559 0.011580
98.23609924 10.53649902 27.44919968 -0.731423 0.661474 -0.165749
98.53040314 10.53070068 27.44610023 0.984912 0.123564 -0.121165
98.22299957 10.54229736 27.44199944 -0.668346 0.743692 -0.015348
98.23280334 10.55000305 27.44799995 -0.720698 0.692490 -0.032438
98.54160309 10.55210114 27.44689941 0.986790 0.148662 -0.064381
98.24890137 10.56479645 27.44700050 -0.875526 0.412984 -0.250794
98.52970123 10.56710052 27.44770050 0.930172 0.366118 -0.027168
98.25890350 10.57710266 27.44890022 -0.921958 0.366295 -0.125784
98.52690125 10.57710266 27.44160080 0.882434 0.470007 0.020086
98.51149750 10.58260345 27.44039917 0.877504 0.452577 0.158620
98.52590179 10.59539795 27.44239998 0.882225 0.460108 0.099901
98.26439667 10.60189819 27.44269943 -0.943876 0.167528 0.284661
98.48999786 10.61640167 27.44400024 0.885100 0.451755 -0.111877
98.26399994 10.62300110 27.44440079 -0.928591 0.270780 0.253767
98.26390076 10.64189911 27.44319916 -0.544570 0.813041 0.205930
98.46330261 10.65270233 27.44339943 0.806716 0.548567 -0.219734
98.35780334 10.66750336 27.44759941 -0.173938 0.984091 0.036188
98.46050262 10.66639709 27.44519997 0.327520 0.936353 -0.126387
98.35890198 10.67880249 27.44449997 -0.258341 0.955200 0.144406
98.49559784 10.67459869 27.44739914 0.474963 0.840792 0.259769
98.32319641 10.68090057 27.44919968 0.246170 0.969220 0.003568
98.40619659 10.68640137 27.44569969 -0.300340 0.946405 0.118801
98.38829803 10.69039917 27.44949913 -0.519107 0.825365 0.222037
98.42440033 10.69319916 27.44269943 0.398987 0.900241 -0.174287
98.40799713 10.72000122 27.44980049 0.281911 0.923009 -0.261877
98.36789703 10.26840210 27.45879936 -0.009204 -0.999162 -0.039885
98.31759644 10.27660370 27.45140076 -0.186912 -0.978540 -0.086737
98.39810181 10.27690125 27.45190048 0.356493 -0.931654 -0.070238
98.29799652 10.28320313 27.45719910 -0.707872 -0.695950 0.120711
98.32749939 10.28530121 27.45140076 -0.278277 -0.959618 0.041180
98.34919739 10.28849792 27.45949936 -0.208590 -0.968729 0.134368
98.35189819 10.28790283 27.45549965 -0.239207 -0.958148 0.157268
98.36350250 10.28089905 27.45059967 -0.151161 -0.983150 0.102789
98.37999725 10.28669739 27.45170021 0.173907 -0.963680 0.202674
98.33850098 10.29589844 27.45429993 -0.355507 -0.915181 0.189889
98.41940308 10.29180145 27.45890045 0.592106 -0.740535 -0.317833
98.42610168 10.29239655 27.45590019 0.526607 -0.777832 -0.343019
98.31310272 10.32839966 27.45879936 -0.782598 -0.622490 -0.006901
98.46119690 10.32669830 27.45980072 0.769924 -0.635151 -0.061651
98.40509796 10.33830261 27.45429993 0.966859 0.236963 0.095039
98.46420288 10.33679962 27.45070076 0.747418 -0.629323 -0.212882
98.26640320 10.34950256 27.45030022 -0.777680 -0.618307 0.113627
98.24310303 10.36560059 27.45800018 -0.754913 -0.650185 0.085819
98.25370026 10.36750031 27.45400047 -0.725387 -0.681246 0.098582
98.26290131 10.36990356 27.45709991 -0.747468 -0.664262 -0.006934
98.28690338 10.36389923 27.45829964 -0.769772 -0.637004 0.040960
98.49590302 10.36530304 27.45459938 0.745919 -0.465993 -0.475873
98.47959900 10.37039948 27.45339966 0.779744 -0.505300 -0.369692
98.18930054 10.38110352 27.45549965 -0.623245 0.639954 -0.449472
98.24929810 10.38379669 27.45680046 -0.718060 -0.695664 0.020996
98.49420166 10.39399719 27.45829964 0.863875 -0.476671 -0.162802
98.50499725 10.39369965 27.45540047 0.833110 -0.370096 -0.411043
98.50659943 10.40059662 27.45330048 0.884543 -0.465761 -0.025503
98.51550293 10.41819763 27.45919991 0.806862 -0.561624 0.183171
98.19490051 10.43199921 27.45199966 -0.931261 -0.361794 0.043102
98.50610352 10.43479919 27.45989990 0.869958 -0.380702 0.313430
98.52149963 10.43859863 27.45599937 0.915870 -0.296609 0.270565
98.54609680 10.43530273 27.45719910 0.930443 -0.324056 0.171068
98.19280243 10.44259644 27.45890045 -0.925357 -0.379077 -0.003829
98.51999664 10.45770264 27.45079994 0.958581 -0.126852 0.255011
98.20030212 10.46630096 27.45269966 -0.998835 -0.040620 0.026038
98.53810120 10.47769928 27.45969963 0.955600 -0.191656 0.223822
98.19139862 10.50810242 27.45719910 -0.966132 0.255921 -0.033062
98.18319702 10.51349640 27.45210075 -0.996659 0.033474 -0.074506
98.54019928 10.51349640 27.45929909 0.991058 -0.003307 0.133390
98.20670319 10.52140045 27.45210075 -0.710235 0.672936 0.206698
98.22760010 10.54070282 27.45809937 -0.697612 0.700638 0.149813
98.24389648 10.55220032 27.45299911 -0.852256 0.416074 -0.317083
98.52919769 10.55490112 27.45280075 0.957556 0.284882 -0.043925
98.51989746 10.56210327 27.45269966 0.925116 0.374040 -0.065224
98.51249695 10.58480072 27.45840073 0.895046 0.445528 -0.019949
98.52970123 10.58380127 27.45750046 0.882186 0.470050 0.028284
98.53540039 10.58979797 27.45249939 0.857831 0.491237 0.151037
98.50500488 10.59474945 27.45624924 0.867479 0.491898 -0.074275
98.49140167 10.60669708 27.45109940 0.931279 0.321563 -0.171222
98.51460266 10.60019684 27.45030022 0.835289 0.503608 -0.220614
98.50209808 10.61239624 27.45109940 0.884304 0.445735 -0.139023
98.26799774 10.62799835 27.45039940 -0.951061 0.223859 0.213005
98.50229645 10.63990021 27.45680046 0.914485 0.335551 -0.226101
98.47619629 10.64920044 27.45050049 0.827142 0.469289 -0.309197
98.31500244 10.66400146 27.45429993 -0.046731 0.996558 -0.068466
98.32949829 10.66719818 27.45140076 -0.150802 0.983231 -0.102546
98.47380066 10.66790009 27.45429993 0.385810 0.896312 0.218577
98.34079742 10.67929840 27.45840073 -0.159930 0.978174 -0.132655
98.42919922 10.67639923 27.45989990 0.414943 0.909733 0.014399
98.37030029 10.68139648 27.45549965 -0.203995 0.965405 0.162417
98.42929840 10.68930054 27.45280075 0.563643 0.825285 -0.034793
98.38539886 10.69110107 27.45949936 -0.495237 0.831565 0.251475
98.41500092 10.69680023 27.45159912 0.607334 0.779135 -0.155224
98.40540314 10.72869873 27.45319939 -0.933825 0.132622 0.332239
98.35649872 10.26959991 27.46969986 -0.121289 -0.989946 -0.072773
