6.55342007 -0.28949600 0.45539001 -0.961866 0.233615 -0.142257
6.57110500 -0.32597700 0.44947100 -0.546797 -0.803931 -0.233899
6.55881977 -0.27778199 0.44366100 -0.945325 0.281557 -0.164582
6.56195402 -0.31720501 0.44720900 -0.742667 -0.619677 -0.253863
6.56336403 -0.31695801 0.44140500 -0.731555 -0.626821 -0.268184
6.55925703 -0.30462700 0.43571901 -0.872551 -0.352994 -0.337712
6.55886507 -0.30777600 0.44054300 -0.856301 -0.394858 -0.332920
6.55853510 -0.28061900 0.44179800 -0.942945 0.280557 -0.179283
6.56072187 -0.27557200 0.43590701 -0.943268 0.288031 -0.165174
6.55932093 -0.28088999 0.43764600 -0.940218 0.277509 -0.197432
6.55721378 -0.29468900 0.43389800 -0.945541 -0.047470 -0.322023
6.56205320 -0.27785301 0.42728299 -0.947994 0.225063 -0.225063
6.57358217 -0.31942999 0.42431599 -0.635457 -0.703369 -0.318537
6.59425306 -0.26196501 0.46722201 0.070865 0.981300 0.178964
6.56168985 -0.30897200 0.43465999 -0.863559 -0.394200 -0.314440
6.56308699 -0.31307399 0.43564099 -0.830494 -0.456850 -0.318696
6.56918097 -0.32182199 0.43983501 -0.618174 -0.741492 -0.260866
6.57611418 -0.33202201 0.46631601 -0.260668 -0.953111 -0.153728
6.56569195 -0.32069799 0.44598201 -0.646502 -0.719214 -0.254491
6.56774902 -0.32351500 0.44801900 -0.602592 -0.756781 -0.253309
6.58032322 -0.33145899 0.45539600 -0.228584 -0.962667 -0.144988
6.57019520 -0.32381099 0.44426301 -0.581620 -0.770765 -0.260074
6.59367800 -0.33259699 0.44264200 -0.188360 -0.980192 -0.061187
6.58453798 -0.33050200 0.44046801 -0.252200 -0.957305 -0.141285
6.57973909 -0.32970601 0.44721901 -0.335480 -0.925026 -0.178268
6.57415390 -0.32928801 0.45508900 -0.406157 -0.887637 -0.217109
6.61530113 -0.34261799 0.48321700 -0.978726 -0.178062 -0.101925
6.58821917 -0.33439299 0.47729301 0.077566 -0.989831 -0.119243
6.57593012 -0.33524600 0.48270801 -0.203543 -0.969072 -0.139536
6.58865595 -0.33285499 0.46426800 -0.022349 -0.997204 -0.071305
6.57036018 -0.32816401 0.45829201 -0.525143 -0.817745 -0.235621
6.55708790 -0.31455699 0.45627600 -0.807723 -0.530700 -0.256790
6.57036400 -0.32615501 0.45120099 -0.551903 -0.802346 -0.227254
6.57094717 -0.32721800 0.45434800 -0.541542 -0.811545 -0.219378
6.57497406 -0.32867199 0.45188001 -0.437036 -0.875554 -0.205925
6.57031393 -0.32954699 0.46280399 -0.490141 -0.846060 -0.209630
6.61702108 -0.33587000 0.46595699 -0.896179 -0.399431 -0.193180
6.55846310 -0.31856799 0.46026099 -0.757159 -0.610411 -0.232612
6.57078314 -0.32553101 0.44776300 -0.560892 -0.793950 -0.234612
6.56882906 -0.32682100 0.45640001 -0.545437 -0.805022 -0.233317
6.55571508 -0.31516600 0.46182200 -0.800879 -0.549926 -0.237011
6.55379581 -0.31075200 0.45941699 -0.852694 -0.456092 -0.254740
6.55787992 -0.31783399 0.46105900 -0.764112 -0.601601 -0.232828
6.56431389 -0.33001900 0.48135000 -0.536207 -0.832957 -0.136623
6.55594683 -0.32251301 0.47845000 -0.709775 -0.672501 -0.209671
6.55886316 -0.32286799 0.47098699 -0.698711 -0.673476 -0.241316
6.55471706 -0.31994101 0.47592601 -0.743258 -0.620171 -0.250909
6.56409693 -0.32442001 0.46039999 -0.650011 -0.725193 -0.227112
6.56530619 -0.32647899 0.46349800 -0.627623 -0.745984 -0.222705
6.55939102 -0.32742801 0.48766300 -0.602471 -0.784857 -0.145012
6.57335615 -0.33388799 0.48117799 -0.276558 -0.948392 -0.155142
6.55269384 -0.31631300 0.47339699 -0.796119 -0.545865 -0.261202
6.56383991 -0.32872999 0.47491199 -0.587875 -0.784345 -0.198005
6.56069708 -0.32437199 0.47082201 -0.670031 -0.704552 -0.233805
6.56078386 -0.32340601 0.46850801 -0.685547 -0.694916 -0.217064
6.56786489 -0.32966101 0.46946999 -0.514840 -0.825280 -0.232062
6.56091022 -0.32735601 0.47976300 -0.625518 -0.766522 -0.145504
6.55566311 -0.31866899 0.46943200 -0.756712 -0.609443 -0.236570
6.55242014 -0.31873700 0.48041701 -0.780579 -0.581943 -0.228121
6.54847193 -0.30846599 0.47416401 -0.945059 -0.263960 -0.192841
6.55096579 -0.30912599 0.46402800 -0.903047 -0.334407 -0.269588
6.56389713 -0.33043399 0.48785901 -0.537403 -0.833195 -0.130324
6.56700897 -0.32901499 0.46765000 -0.546398 -0.803345 -0.236824
6.55404806 -0.32215899 0.48377001 -0.709074 -0.678178 -0.193103
6.55273390 -0.31801301 0.47720000 -0.781057 -0.578388 -0.235408
6.55725193 -0.32107601 0.47268501 -0.717039 -0.654002 -0.241114
6.55231619 -0.31761599 0.47872400 -0.787454 -0.570011 -0.234528
6.55096722 -0.32044399 0.48771200 -0.784723 -0.592732 -0.181324
6.56063604 -0.32959300 0.49605200 -0.526188 -0.845609 -0.089837
6.55486584 -0.32194799 0.48140901 -0.706165 -0.678229 -0.203313
6.56742382 -0.33154699 0.48005801 -0.459456 -0.877144 -0.139709
6.54845524 -0.31600499 0.48839501 -0.895379 -0.410923 -0.171578
6.57270813 -0.33315501 0.47868001 -0.301575 -0.937775 -0.172132
6.56898022 -0.33175701 0.47635800 -0.424882 -0.891532 -0.156990
6.57704020 -0.33514801 0.48504499 -0.132729 -0.987833 -0.081047
6.58410501 -0.33535400 0.48207101 -0.014045 -0.995056 -0.098317
6.57231283 -0.33170000 0.47078699 -0.310285 -0.936372 -0.164106
6.55214214 -0.28657401 0.47126901 -0.930834 0.354922 -0.087056
6.55982924 -0.32678699 0.47919899 -0.644791 -0.745396 -0.169200
6.56451607 -0.32968500 0.47613999 -0.544648 -0.820723 -0.172547
6.56612492 -0.33157101 0.48537600 -0.481089 -0.869387 -0.112778
6.56731701 -0.33202401 0.48282301 -0.453578 -0.882984 -0.120859
6.55017614 -0.28794700 0.48500800 -0.920133 0.377104 -0.105589
6.54890299 -0.28971899 0.49027601 -0.925116 0.374040 -0.065224
6.54929876 -0.29069901 0.48266199 -0.936631 0.332875 -0.109161
6.54934120 -0.31099799 0.47279599 -0.881641 -0.411829 -0.230446
6.55135012 -0.29071400 0.46499401 -0.955747 0.262336 -0.133145
6.55131292 -0.28698900 0.47911301 -0.922783 0.373734 -0.093773
6.54617596 -0.30547801 0.48514101 -0.987525 -0.064277 -0.143746
6.55586195 -0.28072000 0.45625600 -0.936392 0.334522 -0.106133
6.55499506 -0.28022000 0.47788900 -0.855572 0.517164 -0.023197
6.54728222 -0.29489899 0.49243999 -0.962769 0.258180 -0.080125
6.56320381 -0.27004001 0.48256299 -0.606777 0.784805 0.126103
6.56302691 -0.27035201 0.48153001 -0.666972 0.735303 0.120322
6.56850576 -0.26867300 0.48897800 -0.328241 0.935690 0.129389
6.55549908 -0.27960399 0.48912701 -0.787461 0.614361 0.049660
6.54674721 -0.29693499 0.48867300 -0.971304 0.210933 -0.109887
6.54655695 -0.29638299 0.49176800 -0.969044 0.228084 -0.094510
6.54720020 -0.29244500 0.49480501 -0.938108 0.339818 -0.066914
6.54787016 -0.30054000 0.47736600 -0.980260 0.111644 -0.163172
6.54787302 -0.30511299 0.47485200 -0.985225 -0.057677 -0.161261
6.54784584 -0.29979500 0.47927299 -0.978018 0.127675 -0.164862
6.54801083 -0.29679200 0.48076701 -0.968687 0.199398 -0.147940
6.54875898 -0.29071200 0.48823601 -0.938095 0.333988 -0.091814
6.54602909 -0.30519101 0.48420799 -0.988912 -0.056542 -0.137317
6.54675198 -0.30719501 0.48396501 -0.984007 -0.112011 -0.138508
6.57174110 -0.26285800 0.45839700 -0.394799 0.905044 0.158205
6.54718494 -0.31293100 0.48826501 -0.950884 -0.276063 -0.140032
6.55112886 -0.28876600 0.47325301 -0.943177 0.317046 -0.099491
6.54899216 -0.31346101 0.47822499 -0.880363 -0.429122 -0.202026
6.54872084 -0.31392699 0.48126900 -0.892268 -0.411928 -0.184858
6.55133295 -0.31663099 0.47838300 -0.820979 -0.527445 -0.218622
6.54999113 -0.29867500 0.46468699 -0.981956 0.090810 -0.165879
6.54860306 -0.30119300 0.47190100 -0.986874 0.071751 -0.144679
6.54963779 -0.29596800 0.47221601 -0.971803 0.196388 -0.130503
6.54977179 -0.30686501 0.46529800 -0.932768 -0.243392 -0.265902
6.55466795 -0.28098699 0.47476700 -0.885002 0.464727 -0.028288
6.55310011 -0.30401000 0.45239499 -0.942926 -0.207857 -0.260165
6.60624981 -0.31366101 0.50416201 0.856721 0.426054 0.290701
6.55444479 -0.30614901 0.44996101 -0.916653 -0.293966 -0.270796
6.54917002 -0.30305499 0.46565899 -0.979636 -0.034352 -0.197822
6.54956484 -0.29426900 0.47312200 -0.965018 0.233202 -0.119822
6.55116796 -0.29422900 0.46288100 -0.966292 0.208264 -0.151347
6.59815121 -0.26287401 0.47163600 0.017770 0.974990 0.221535
6.55018616 -0.30074701 0.46202901 -0.976799 -0.005849 -0.214077
6.55614519 -0.30756900 0.44760001 -0.892143 -0.345201 -0.291404
6.55357122 -0.30094701 0.44817901 -0.954252 -0.153053 -0.256863
6.55568695 -0.27932599 0.46471000 -0.909065 0.413698 -0.049537
6.55901289 -0.31773600 0.45655599 -0.760361 -0.603585 -0.239866
6.55194712 -0.29364499 0.45938200 -0.966005 0.198922 -0.165118
6.55151987 -0.29543099 0.45917201 -0.971021 0.162477 -0.175270
6.55139494 -0.30387500 0.45821500 -0.949775 -0.168879 -0.263451
6.55239916 -0.29241699 0.45599899 -0.965737 0.208703 -0.154259
6.55190182 -0.29674199 0.45631501 -0.974713 0.090412 -0.204355
6.55332184 -0.28454700 0.47032201 -0.926658 0.365538 -0.087675
6.55364084 -0.28590301 0.46191499 -0.942238 0.314973 -0.113926
6.55986881 -0.31486300 0.44629800 -0.804889 -0.532946 -0.261003
6.58030415 -0.26182401 0.46768099 -0.127900 0.965066 0.228670
6.55957603 -0.27250400 0.45785600 -0.826755 0.562521 0.006810
6.55899906 -0.27404499 0.45143601 -0.899819 0.425646 -0.095666
6.55673218 -0.27799901 0.45968500 -0.911077 0.407764 -0.060559
6.58073378 -0.25889301 0.45263401 -0.237688 0.962442 0.131183
6.61201286 -0.32664800 0.47413701 -0.772631 -0.592299 -0.228525
6.56517506 -0.26695701 0.46507800 -0.615646 0.786264 0.052607
6.58300400 -0.26603499 0.48754400 -0.099102 0.980010 0.172511
6.59668303 -0.24166501 0.42748699 -0.461401 0.844101 0.273137
6.55036116 -0.29541400 0.46714100 -0.970509 0.195122 -0.141559
6.55151415 -0.28485301 0.49179399 -0.860179 0.509585 -0.020383
6.56409502 -0.26843700 0.47464401 -0.626469 0.776245 0.070568
6.56047297 -0.27248999 0.47748700 -0.756837 0.650966 0.058658
6.56313705 -0.27042001 0.48462799 -0.625770 0.770748 0.119828
6.55695820 -0.27732801 0.47914299 -0.809115 0.587059 0.026369
6.55677414 -0.27726501 0.47734299 -0.825671 0.563772 0.020676
6.58721304 -0.26464000 0.48116499 0.008016 0.983673 0.179787
6.57130003 -0.26493400 0.47360799 -0.282752 0.943874 0.170744
6.57296515 -0.26308900 0.46381101 -0.358956 0.919209 0.161882
6.57438517 -0.26441199 0.47447500 -0.177007 0.956900 0.230242
6.56511402 -0.26852599 0.47983900 -0.514854 0.847394 0.129807
6.58190012 -0.26521099 0.48396799 -0.107932 0.976349 0.187330
6.57024479 -0.26682100 0.48349199 -0.277315 0.943965 0.178957
6.59363794 -0.26574501 0.48472300 0.053452 0.982330 0.179361
6.58369780 -0.25851101 0.45405200 -0.153215 0.973737 0.168410
6.56851482 -0.27516001 0.53442001 -0.362171 0.924019 0.122560
6.57530880 -0.25735801 0.43163601 -0.555676 0.820985 0.131181
6.59150124 -0.25381699 0.43892199 -0.252327 0.818902 0.515490
6.58707190 -0.25362700 0.43788400 -0.262671 0.863929 0.429687
6.57735586 -0.25602099 0.43003699 -0.547779 0.826809 0.127766
6.57930803 -0.26010299 0.45793301 -0.256546 0.952308 0.165210
6.60334110 -0.24470399 0.43559101 0.116511 0.603204 0.789032
6.58880615 -0.25048500 0.43240699 -0.477764 0.753587 0.451495
6.59895897 -0.24137500 0.41337600 -0.333109 0.891777 -0.306222
6.58994198 -0.24654400 0.42935401 -0.588448 0.728633 0.350461
6.59067202 -0.24655400 0.43071201 -0.578755 0.713963 0.394081
6.57661486 -0.25640300 0.42725199 -0.587006 0.804416 0.091312
6.59540701 -0.24148300 0.42343101 -0.484846 0.859166 0.163580
6.58405590 -0.24939400 0.41856599 -0.634221 0.773001 0.015266
6.59822607 -0.24242599 0.43188199 -0.308265 0.804652 0.507452
6.58213615 -0.25251001 0.42886201 -0.529420 0.829374 0.178473
6.57962799 -0.25355101 0.41623899 -0.648790 0.759524 -0.046849
6.58153009 -0.25151399 0.41633400 -0.638216 0.769491 -0.023741
6.58199787 -0.25229201 0.42698401 -0.561204 0.812624 0.157137
6.58620977 -0.24768101 0.41806301 -0.617732 0.786330 0.009674
6.57903385 -0.25520599 0.43190700 -0.505514 0.841524 0.190505
6.58988905 -0.24450500 0.41745001 -0.589862 0.803309 -0.082206
6.58119297 -0.25148201 0.42135099 -0.621356 0.781337 0.058565
6.57997608 -0.25360501 0.42632300 -0.566411 0.816855 0.109205
6.58675718 -0.25204399 0.43346801 -0.449931 0.805392 0.385884
6.59252214 -0.25540599 0.44241601 -0.072254 0.906581 0.415800
6.57003403 -0.26107901 0.43280900 -0.611030 0.790828 0.035117
6.57284403 -0.25873300 0.42942899 -0.611902 0.788769 0.058480
6.56821299 -0.26349401 0.42559499 -0.754897 0.649767 -0.089069
6.57644510 -0.25616699 0.42508000 -0.610008 0.790010 0.061429
6.57831383 -0.25502601 0.41326800 -0.685225 0.723212 -0.086201
6.57243681 -0.25962499 0.41717201 -0.712821 0.695257 -0.092213
6.56818724 -0.26548901 0.41606399 -0.849400 0.484294 -0.209710
6.56751299 -0.26366201 0.43028000 -0.743713 0.666629 -0.049962
6.57830620 -0.25601199 0.43430600 -0.484320 0.857558 0.173289
6.56940317 -0.26196101 0.43098101 -0.691755 0.722131 -0.001381
6.57507277 -0.25995499 0.44801599 -0.377718 0.914107 0.147437
6.57851982 -0.25709599 0.43761200 -0.407489 0.884621 0.226712
6.58295202 -0.25635600 0.44352299 -0.276506 0.933382 0.228784
6.56554890 -0.26466301 0.44716701 -0.614145 0.788411 0.035134
6.57086515 -0.26276600 0.45407599 -0.435635 0.889837 0.135689
6.58128214 -0.26622501 0.37879801 -0.855158 0.380243 -0.352307
6.58853102 -0.26769099 0.34688801 -0.952861 0.276211 -0.125550
6.56983614 -0.30194899 0.40689200 -0.849310 -0.330719 -0.411457
6.56688976 -0.27385399 0.41090101 -0.937822 0.215992 -0.271731
6.56539297 -0.27643600 0.41440201 -0.952728 0.159458 -0.258617
6.58493185 -0.28916100 0.35797700 -0.937691 -0.229894 -0.260547
6.56798983 -0.28199801 0.40563199 -0.936131 0.034863 -0.349919
6.56886578 -0.27286199 0.40507999 -0.934471 0.199745 -0.294729
6.58881998 -0.24479900 0.41982701 -0.611030 0.790828 0.035117
6.57424402 -0.26360500 0.40062299 -0.814553 0.508118 -0.279856
6.58828592 -0.26058599 0.36714199 -0.828054 0.501150 -0.251346
6.56713581 -0.26935399 0.41459799 -0.918800 0.298574 -0.258187
6.56793022 -0.28479400 0.40632999 -0.931373 0.019270 -0.363557
6.56970501 -0.27199200 0.40266299 -0.925907 0.199317 -0.320887
6.57158518 -0.28235501 0.39611599 -0.932952 -0.016637 -0.359615
6.58006907 -0.30775201 0.39206401 -0.791487 -0.428924 -0.435399
6.56139803 -0.28262401 0.42681700 -0.945392 0.204446 -0.253843
6.56041718 -0.28148100 0.43147299 -0.940726 0.247997 -0.231371
6.56607485 -0.29269001 0.40982401 -0.916618 -0.097279 -0.387747
6.56714201 -0.29586899 0.40906399 -0.885687 -0.226985 -0.405013
6.56914091 -0.28898799 0.40197200 -0.924340 -0.048788 -0.378439
6.57107401 -0.29554099 0.39949399 -0.879215 -0.231372 -0.416470
6.57039022 -0.30037501 0.40456501 -0.854663 -0.323010 -0.406467
6.57040215 -0.30447301 0.40877801 -0.828458 -0.394429 -0.397597
6.57536221 -0.30469501 0.39838400 -0.836442 -0.382779 -0.392230
6.57013321 -0.28430301 0.40031201 -0.930450 0.008934 -0.366309
6.56706810 -0.28894600 0.40696999 -0.922556 -0.019463 -0.385372
6.56496811 -0.29256901 0.41214600 -0.922704 -0.088070 -0.375314
6.56456518 -0.29528001 0.41461399 -0.912092 -0.159793 -0.377564
6.56569910 -0.28904799 0.41039699 -0.929088 0.001271 -0.369856
6.58621216 -0.31855199 0.39812899 -0.454458 -0.821825 -0.343615
6.57603502 -0.31076401 0.40351900 -0.789080 -0.496590 -0.361595
6.57827091 -0.31736201 0.41056401 -0.648855 -0.690925 -0.318764
6.58459902 -0.31206501 0.38949201 -0.661032 -0.587398 -0.466906
6.57340813 -0.29040301 0.39279300 -0.890530 -0.160209 -0.425780
6.58963299 -0.25205800 0.38417700 -0.703126 0.665205 -0.251229
6.57676077 -0.29883900 0.39063799 -0.856397 -0.307068 -0.415082
6.57364416 -0.28633699 0.39160800 -0.913605 -0.086035 -0.397398
6.56979418 -0.26550299 0.41073301 -0.854390 0.450885 -0.258304
6.57287979 -0.27920899 0.39231700 -0.931701 0.034987 -0.361536
6.56962204 -0.28058600 0.40099600 -0.937289 0.034810 -0.346810
6.57446623 -0.28244501 0.38758299 -0.922389 -0.057233 -0.381999
6.59742212 -0.25395301 0.44046801 -0.085819 0.754913 0.650185
6.57543278 -0.25717500 0.41408801 -0.693282 0.716537 -0.077031
6.60543108 -0.30684701 0.35691500 -0.223616 -0.924375 -0.309074
6.57556581 -0.25757200 0.41226599 -0.722699 0.681148 -0.117235
6.57792997 -0.26284301 0.39202300 -0.792592 0.528924 -0.303377
6.58318615 -0.26528400 0.37439099 -0.858531 0.416211 -0.299488
6.57673693 -0.26739901 0.38918099 -0.854977 0.386369 -0.346025
6.57700396 -0.25875100 0.40284100 -0.746445 0.631608 -0.209501
6.58186722 -0.26056099 0.38564500 -0.789475 0.539501 -0.292691
6.58638906 -0.25857100 0.37693799 -0.784092 0.560964 -0.265554
6.58310413 -0.25526699 0.39341301 -0.744209 0.603973 -0.285254
6.58401203 -0.25594801 0.38905299 -0.740662 0.606287 -0.289546
6.58876419 -0.25060499 0.38977501 -0.650798 0.725710 -0.223175
6.59566498 -0.24536400 0.39989701 -0.447656 0.893984 0.019925
6.59328699 -0.24786200 0.38662401 -0.568026 0.807825 -0.157369
6.59016418 -0.24839400 0.39431199 -0.516140 0.849690 -0.107829
6.59081078 -0.24751800 0.39645901 -0.503926 0.858804 -0.092268
6.58318996 -0.31770000 0.40285400 -0.583879 -0.753444 -0.302337
6.59129190 -0.32360700 0.40790600 -0.262035 -0.916400 -0.302571
6.58464479 -0.32067099 0.40742999 -0.475554 -0.831050 -0.288451
6.58130407 -0.31359100 0.39664799 -0.696339 -0.610737 -0.376978
6.58670902 -0.31481701 0.39050099 -0.532697 -0.730602 -0.427147
6.59164381 -0.31362599 0.38262200 -0.445611 -0.768801 -0.458669
6.60078907 -0.31192201 0.37272599 -0.260854 -0.858836 -0.440859
6.59740877 -0.31263500 0.37719500 -0.319068 -0.828318 -0.460526
6.59637880 -0.31335399 0.37861300 -0.308046 -0.830317 -0.464415
6.58700180 -0.30108899 0.37391901 -0.716703 -0.585499 -0.378852
6.59986210 -0.31391001 0.37739199 -0.214929 -0.881952 -0.419483
6.59082699 -0.30981201 0.37905300 -0.583137 -0.676706 -0.449467
6.58312702 -0.29518300 0.37064600 -0.825355 -0.480805 -0.296000
6.58242416 -0.28805599 0.36699700 -0.938381 -0.207139 -0.276649
6.58138514 -0.28169000 0.36776599 -0.963639 0.056244 -0.261220
6.57927322 -0.29156199 0.37718701 -0.903188 -0.302045 -0.304992
6.58586979 -0.30011100 0.37389100 -0.725950 -0.578465 -0.371988
6.59754515 -0.30780801 0.36683601 -0.432491 -0.831955 -0.347566
6.59306097 -0.25679401 0.35824499 -0.804394 0.573711 -0.154288
6.59181404 -0.25459200 0.37001300 -0.765053 0.606766 -0.215705
6.58935785 -0.26348600 0.35667601 -0.896621 0.427964 -0.113656
6.59614086 -0.25557801 0.33024001 -0.827700 0.559709 -0.040478
6.59023905 -0.26613200 0.34387600 -0.943821 0.309252 -0.116471
6.58525276 -0.26816100 0.36607301 -0.897232 0.333681 -0.289191
6.58968592 -0.26259601 0.35459501 -0.882240 0.453274 -0.127260
6.58566999 -0.26179600 0.37260401 -0.812778 0.508965 -0.283454
6.58605909 -0.26345900 0.36958501 -0.823222 0.496423 -0.275445
6.58038187 -0.27463299 0.37441501 -0.938459 0.189350 -0.288863
6.58570814 -0.28057900 0.35393101 -0.964429 0.114598 -0.238210
6.57975197 -0.30148000 0.38670400 -0.824628 -0.368788 -0.428933
6.58025122 -0.28725800 0.37254399 -0.942591 -0.133500 -0.306106
6.58106089 -0.28531501 0.36856899 -0.957702 -0.097196 -0.270852
6.58199978 -0.28393799 0.36324000 -0.958330 -0.070184 -0.276908
6.57917309 -0.28121400 0.37544900 -0.949270 0.055235 -0.309573
6.57957315 -0.31010500 0.39499199 -0.750700 -0.510870 -0.418881
6.58386183 -0.31024301 0.38810301 -0.687446 -0.553636 -0.470005
6.58103418 -0.30494201 0.38733801 -0.801482 -0.403150 -0.441698
6.58317184 -0.28540999 0.36178699 -0.954605 -0.111305 -0.276299
6.58499002 -0.30430400 0.37967700 -0.720172 -0.534748 -0.442037
6.58758688 -0.29602900 0.35819501 -0.786627 -0.572516 -0.231178
6.58698797 -0.29246300 0.35373300 -0.891840 -0.358820 -0.275443
6.59693718 -0.29961601 0.34695399 -0.481145 -0.822804 -0.302478
6.58705711 -0.29579100 0.35997400 -0.821748 -0.524878 -0.221887
6.59210205 -0.28210700 0.31717199 -0.936557 -0.253388 -0.242189
6.58937311 -0.29152101 0.34540701 -0.855830 -0.442460 -0.267925
6.59051895 -0.28979400 0.33767399 -0.854844 -0.481875 -0.192452
6.58723402 -0.28208101 0.34565300 -0.979109 0.005807 -0.203255
6.58846092 -0.28375599 0.33725801 -0.958496 -0.219351 -0.182128
6.59162378 -0.26365900 0.33588201 -0.925830 0.342124 -0.160589
6.58339977 -0.28030401 0.36166501 -0.960182 0.075233 -0.269055
6.58900595 -0.26460201 0.35021299 -0.916541 0.381314 -0.120634
6.58454990 -0.27406600 0.36380801 -0.931160 0.238795 -0.275533
6.58979797 -0.27093899 0.33823299 -0.968845 0.198902 -0.147572
6.58835697 -0.28722599 0.34181899 -0.945168 -0.276867 -0.173213
6.59164810 -0.26172501 0.34888601 -0.876860 0.474092 -0.079715
6.59254980 -0.25977999 0.34030899 -0.891952 0.446663 -0.070092
6.58912611 -0.26308799 0.35249600 -0.899016 0.422159 -0.116409
6.58960915 -0.26297799 0.35089999 -0.901451 0.419377 -0.107282
6.58956289 -0.25814700 0.36979401 -0.793950 0.560892 -0.234612
6.58708096 -0.27369601 0.35346001 -0.975224 0.186532 -0.118930
6.58849001 -0.26617399 0.34891701 -0.939287 0.327347 -0.102881
6.59394884 -0.25948900 0.33478701 -0.892405 0.425432 -0.150405
6.59109116 -0.26206201 0.34221500 -0.897725 0.427155 -0.107839
6.59055281 -0.26747099 0.33471000 -0.953629 0.255460 -0.159161
6.59442616 -0.27510300 0.15951900 -0.999441 0.031518 0.011184
6.59645081 -0.25527701 0.32365900 -0.877500 0.479486 -0.009349
6.59243822 -0.26400101 0.33383000 -0.925023 0.333684 -0.181625
6.59146595 -0.26152000 0.34479201 -0.874052 0.477140 -0.091487
6.59338999 -0.26081401 0.33169699 -0.913257 0.382979 -0.138882
6.59249020 -0.27127200 0.31509200 -0.995616 0.093238 -0.007502
6.58723021 -0.27231601 0.35096699 -0.975504 0.183610 -0.121157
6.59145021 -0.26031300 0.35261601 -0.844794 0.527460 -0.090054
6.58928823 -0.26465100 0.34821299 -0.933995 0.344386 -0.095142
6.58927202 -0.29419199 0.34943199 -0.788763 -0.552607 -0.269219
6.58644676 -0.28362301 0.34808499 -0.972367 -0.073082 -0.221724
6.58971500 -0.28089699 0.32425499 -0.968906 -0.136952 -0.206069
6.58974409 -0.27798599 0.32624701 -0.987397 0.014737 -0.157575
6.58905411 -0.27869299 0.33051300 -0.994329 0.014127 -0.105410
6.59187794 -0.29075301 0.33321601 -0.806451 -0.547400 -0.223586
6.59716082 -0.29532200 0.33183101 -0.569854 -0.785306 -0.241993
6.59501410 -0.28931800 0.31963399 -0.750243 -0.625979 -0.212802
6.59348488 -0.26431900 0.32211199 -0.963943 0.257638 -0.066609
6.59230709 -0.26731801 0.30825999 -0.994704 0.101101 -0.018481
6.59241009 -0.26850700 0.30586800 -0.997075 0.026717 -0.071601
6.59682322 -0.28852299 0.31036901 -0.743932 -0.646567 -0.168868
6.59571505 -0.27797100 0.18082300 -0.992740 -0.069050 0.098482
6.59604502 -0.26959500 0.18898800 -0.997905 0.043572 0.047823
6.59822512 -0.28385499 0.28790000 -0.878171 -0.451424 -0.158216
6.59425688 -0.28115499 0.15588500 -0.997548 -0.069985 0.001045
6.59395599 -0.28205401 0.14618200 -0.993878 -0.088519 0.066109
6.59624004 -0.28248700 0.18255000 -0.978968 -0.178106 0.099494
6.59580994 -0.27699801 0.18487900 -0.993570 -0.057257 0.097673
6.59735489 -0.27827099 0.28039399 -0.930587 -0.349140 -0.110040
6.59614182 -0.27398700 0.28023499 -0.966856 -0.228622 -0.113673
6.59658098 -0.27679500 0.28298399 -0.950626 -0.291385 -0.106797
6.59583187 -0.27785599 0.28463000 -0.946304 -0.303932 -0.110159
6.59513712 -0.28369600 0.16613001 -0.979467 -0.194937 0.051425
6.59133577 -0.27810699 0.31958801 -0.975069 -0.047239 -0.216817
6.59458399 -0.28143701 0.15820600 -0.998854 -0.046482 0.011362
6.59577179 -0.28762701 0.14918099 -0.954015 -0.294229 0.057317
6.59547997 -0.27244699 0.16113900 -0.999354 0.035582 0.005083
6.59470892 -0.27001500 0.16015700 -0.998923 0.044420 0.013429
6.59666586 -0.25895700 0.16108400 -0.978180 0.197575 0.064242
6.59708023 -0.25637999 0.29977301 -0.867743 0.494074 -0.053974
6.59638786 -0.26291299 0.26045501 -0.978307 0.202367 -0.044305
6.59669304 -0.26253900 0.17354000 -0.981396 0.184383 0.053531
6.59562922 -0.26099801 0.15064800 -0.985225 0.161261 0.057677
6.59756708 -0.25558800 0.17648800 -0.975911 0.217785 0.012949
6.59691000 -0.25953001 0.27314401 -0.925575 0.377759 -0.024665
6.59645987 -0.25412101 0.14705101 -0.983410 0.175483 0.045932
6.59375381 -0.26450101 0.31683299 -0.969220 0.246170 0.003568
6.59352398 -0.26525199 0.29521200 -0.990082 0.110267 -0.087053
6.59400702 -0.26659799 0.14291801 -0.995898 0.079803 0.042635
6.59506607 -0.26637900 0.16924299 -0.981549 0.176607 0.073286
6.59445620 -0.26648900 0.15063700 -0.995777 0.064918 0.064918
6.59490919 -0.26565999 0.16113800 -0.995313 0.095973 0.011862
6.59316587 -0.26741201 0.29529300 -0.993684 0.043397 -0.103486
6.59654617 -0.26639301 0.17335600 -0.982403 0.177428 0.058349
6.59628582 -0.26543301 0.17225300 -0.979626 0.187691 0.071444
6.59598494 -0.25595099 0.32784900 -0.834141 0.551056 -0.023361
6.59371805 -0.26382899 0.29239801 -0.969557 0.239624 -0.050383
6.59279490 -0.28522199 0.31744000 -0.877838 -0.426293 -0.218345
6.59522390 -0.26517501 0.26723799 -0.991749 0.106137 -0.071899
6.59661722 -0.26034001 0.26415199 -0.942004 0.327139 -0.074887
6.59947395 -0.23856699 0.17038700 -0.891393 0.451765 0.036411
6.59266710 -0.26817301 0.30425200 -0.996897 0.013802 -0.077501
6.59262419 -0.26617000 0.30999100 -0.982460 0.184865 0.024416
6.59412909 -0.26878500 0.13558200 -0.994665 0.063489 0.081311
6.59500694 -0.27448100 0.16682300 -0.999342 0.033755 0.013297
6.59462595 -0.27630401 0.16977701 -0.999936 0.010880 0.002967
6.59443521 -0.27798399 0.16914600 -0.999394 -0.023575 0.025625
6.59473085 -0.27333501 0.15502600 -0.999085 0.025829 0.034095
6.59483480 -0.27272400 0.15719600 -0.999220 0.029904 0.025780
6.59430504 -0.26787800 0.28314799 -0.994457 -0.063618 -0.083709
6.59536982 -0.27096900 0.17434800 -0.991987 0.103879 0.071916
6.59665203 -0.28475699 0.29831100 -0.892518 -0.418052 -0.169246
6.59626484 -0.28307801 0.29876399 -0.928481 -0.341781 -0.145291
6.59104776 -0.27258399 0.32635200 -0.961320 0.216988 -0.169645
6.59288406 -0.26449099 0.30667099 -0.973042 0.230551 -0.005912
6.60399008 -0.29601800 0.32358101 -0.442190 -0.867892 -0.226342
6.59738016 -0.28766599 0.17635500 -0.928387 -0.353087 0.115878
6.59505510 -0.26946199 0.16259199 -0.998287 0.057373 0.011475
6.59823179 -0.28944799 0.17421800 -0.898989 -0.428024 0.092808
6.59518003 -0.28446200 0.30621201 -0.890660 -0.410961 -0.194512
6.59465885 -0.28451699 0.14190701 -0.980518 -0.184073 0.068576
6.58960295 -0.29755300 0.35555401 -0.706243 -0.652039 -0.275801
6.60441780 -0.29806799 0.16455700 -0.709190 -0.700453 0.080093
6.59461498 -0.27990001 0.16782001 -0.993852 -0.105257 0.034347
6.58480310 -0.28165001 0.35535300 -0.958110 0.083593 -0.273929
6.58818102 -0.27212900 0.34518301 -0.978319 0.152514 -0.140114
6.63990784 -0.24467000 0.39256299 0.324396 0.915519 0.237891
6.58938980 -0.27582100 0.32753700 -0.985156 0.077244 -0.153299
6.58779287 -0.27376500 0.34642300 -0.975940 0.149085 -0.159107
6.59372282 -0.30031499 0.35340101 -0.601942 -0.745642 -0.285803
6.58502579 -0.28451699 0.35387701 -0.963639 -0.056244 -0.261220
6.58240700 -0.27903599 0.36377600 -0.964493 0.074386 -0.253416
6.59518290 -0.25928101 0.30847701 -0.923367 0.383552 -0.016788
6.60595703 -0.24620700 0.28921801 -0.760808 0.648304 -0.029532
6.59501600 -0.26191199 0.14438500 -0.987597 0.152911 0.035641
6.65895891 -0.30900201 0.17465401 0.568721 -0.821795 -0.034763
6.64828014 -0.31428599 0.27300000 0.241687 -0.970319 0.008334
6.60867500 -0.29433200 0.28508899 -0.713859 -0.699779 -0.026752
6.65361881 -0.31189200 0.29135099 0.416342 -0.909207 0.001297
6.58553505 -0.29189500 0.35894999 -0.911673 -0.327156 -0.248638
6.58375978 -0.36337900 0.58666497 -0.913250 -0.129668 -0.386214
6.57437515 -0.40095001 0.57178801 -0.896382 0.340417 -0.283929
6.57723522 -0.39645299 0.56819397 -0.891752 0.402679 -0.206465
6.57589006 -0.40311801 0.56577599 -0.863482 0.077222 -0.498433
6.57265186 -0.40325001 0.57434398 -0.909146 0.319587 -0.267053
6.58385992 -0.38312501 0.56906497 -0.956591 0.202021 0.210049
6.57376623 -0.40704700 0.56924099 -0.846335 -0.155088 -0.509573
6.57437706 -0.40872899 0.56863302 -0.838754 -0.210826 -0.502039
6.57368088 -0.40503901 0.56985801 -0.895904 0.125964 -0.426015
6.56957579 -0.40971601 0.57779902 -0.928193 0.048576 -0.368914
6.57224417 -0.40183201 0.59749299 -0.402679 0.891752 0.206465
6.57502794 -0.41152599 0.56972098 -0.738284 -0.402850 -0.540970
6.57697296 -0.41699699 0.57274199 -0.519544 -0.654053 -0.549808
6.57583380 -0.40114900 0.56653899 -0.886783 0.229468 -0.401199
6.58441687 -0.39273801 0.58071798 -0.320410 0.745477 0.584467
6.57595491 -0.40790099 0.56627601 -0.795787 -0.285223 -0.534202
6.56915092 -0.41170001 0.57903802 -0.904787 -0.116070 -0.409741
6.57869196 -0.41461700 0.56862599 -0.541671 -0.615919 -0.572045
6.60248899 -0.41006401 0.57745600 0.869343 -0.424844 0.252487
6.58023024 -0.39254799 0.57210302 -0.766840 0.598167 0.232707
6.57874584 -0.39667401 0.56292897 -0.904811 0.222924 -0.362798
6.57941008 -0.39893299 0.56096101 -0.859991 0.110550 -0.498192
6.57577801 -0.39849001 0.58324599 -0.681806 0.730201 0.044125
6.57586908 -0.39813599 0.57790798 -0.721662 0.690223 0.052874
6.57721806 -0.39591599 0.57418001 -0.789603 0.612259 0.040817
6.57315493 -0.40084201 0.59443998 -0.439626 0.871800 0.216087
6.57420492 -0.39890900 0.58734900 -0.674526 0.738239 0.004155
6.57719278 -0.39858499 0.59068203 -0.376224 0.895562 0.237538
6.57298899 -0.40191299 0.57806301 -0.876814 0.467539 -0.112266
6.56787014 -0.40946499 0.58443397 -0.937558 0.241725 -0.250109
6.58768606 -0.37036300 0.59179503 -0.202213 -0.926218 0.318167
6.58922386 -0.39881301 0.59030497 0.345672 0.748145 0.566383
6.58735323 -0.36805701 0.57804400 -0.998025 -0.055974 0.028515
6.58049679 -0.39554399 0.58346999 -0.335375 0.899751 0.279233
6.56717300 -0.41332701 0.63033301 0.237284 0.933691 0.268173
6.56400013 -0.41463000 0.59477901 -0.941295 0.061191 -0.331992
6.57114077 -0.41370299 0.57715899 -0.786299 -0.337900 -0.517260
6.56712294 -0.41605899 0.58688200 -0.907954 -0.255865 -0.331893
6.56722879 -0.41323501 0.58371103 -0.939945 -0.032058 -0.339816
6.56435490 -0.41674000 0.59337199 -0.898476 -0.116704 -0.423226
6.56433487 -0.41199699 0.59707803 -0.892997 0.353323 -0.278782
6.57031107 -0.40502799 0.58564401 -0.847682 0.522856 -0.089755
6.56779718 -0.41083899 0.58178699 -0.952139 0.092732 -0.291258
6.57035398 -0.40555200 0.58024800 -0.897044 0.405909 -0.174786
6.56832504 -0.40908200 0.58204001 -0.935129 0.278162 -0.219455
6.57039499 -0.40463501 0.58289701 -0.857801 0.499058 -0.122956
6.57325506 -0.40084100 0.59598398 -0.327156 0.911673 0.248638
6.56642914 -0.41136399 0.58888400 -0.938875 0.246194 -0.240630
6.57462788 -0.40212801 0.59986401 -0.171184 0.950274 0.260146
6.57069302 -0.40462500 0.59349501 -0.757770 0.652485 0.006927
6.57767105 -0.40535200 0.60911602 0.313890 0.851987 0.419035
6.56371593 -0.41909900 0.59550798 -0.889740 -0.153800 -0.429777
6.56291723 -0.41267201 0.59855700 -0.910956 0.301709 -0.281303
6.56229496 -0.41538301 0.59765100 -0.937217 0.094925 -0.335580
6.56213808 -0.41390201 0.59908199 -0.939773 0.191819 -0.282898
6.57196188 -0.40456301 0.60500097 -0.267648 0.934666 0.234017
6.56560993 -0.41060799 0.59395301 -0.860874 0.461236 -0.214843
6.57060099 -0.40460300 0.58842802 -0.809822 0.585262 -0.040702
6.57331896 -0.40124699 0.59079099 -0.696144 0.716157 0.050031
6.58468914 -0.40725899 0.60258502 0.558729 0.672824 0.484903
6.57063103 -0.40417501 0.60147500 -0.481798 0.858341 0.176412
6.57618809 -0.39935100 0.59262103 -0.344964 0.902778 0.256888
6.58648682 -0.40484101 0.59843200 0.453787 0.654727 0.604492
6.58947182 -0.40812299 0.59833699 0.590381 0.543015 0.597147
6.58125687 -0.40882900 0.61047900 0.549336 0.670291 0.498938
6.58316183 -0.41016799 0.60878003 0.583924 0.634408 0.506517
6.58654499 -0.41176999 0.60704702 0.672407 0.538261 0.508078
6.57230902 -0.40475801 0.60753602 -0.162965 0.940814 0.297171
6.56930494 -0.40540600 0.60418802 -0.502038 0.854192 0.135332
6.57195807 -0.40327501 0.60184997 -0.294212 0.930500 0.218196
6.56934023 -0.40559301 0.60574597 -0.435290 0.880839 0.186134
6.57251215 -0.40291899 0.59993702 -0.343121 0.910647 0.230195
6.58153915 -0.41139901 0.61365497 0.560042 0.660951 0.499497
6.57873917 -0.36263499 0.60877299 -0.559769 -0.826191 0.063771
6.57695103 -0.34611100 0.62886298 0.840533 -0.102363 0.532001
6.56533098 -0.41378599 0.59098601 -0.931229 0.059272 -0.359583
6.58039999 -0.36400899 0.60436100 -0.435465 -0.897030 0.075554
6.58145905 -0.36388400 0.60510802 -0.234763 -0.940442 0.245876
6.56030703 -0.41382200 0.63115603 -0.344034 0.931475 0.118304
6.58219099 -0.41460899 0.61645001 0.608435 0.618548 0.497198
6.57260084 -0.41045800 0.62006700 0.328188 0.813336 0.480392
6.58020210 -0.41586301 0.62042201 0.646502 0.599484 0.471863
6.57658195 -0.41455501 0.62353402 0.557835 0.694380 0.454594
6.57691097 -0.41220900 0.61864102 0.507857 0.707670 0.491206
6.56681585 -0.41170400 0.62428200 -0.092868 0.965575 0.242984
6.56062889 -0.41487199 0.63667703 -0.236737 0.951005 0.198859
6.56991816 -0.41287801 0.62667501 0.237538 0.895562 0.376224
6.57100821 -0.40991500 0.61999500 0.100150 0.881599 0.461252
6.56274414 -0.41356099 0.63213801 -0.133731 0.976113 0.171226
6.56355190 -0.40994099 0.61503500 -0.524911 0.832979 0.174970
6.56075478 -0.41249499 0.61212802 -0.839430 0.541523 -0.045939
6.56270885 -0.41250399 0.62332100 -0.409175 0.899614 0.152549
6.56016302 -0.41283500 0.61712003 -0.766062 0.641453 -0.041064
6.55890512 -0.41567701 0.61305702 -0.925830 0.342124 -0.160589
6.56497812 -0.40820399 0.61011702 -0.567493 0.820660 0.066848
6.57165194 -0.40801901 0.61662698 -0.012023 0.880322 0.474225
6.56631613 -0.40968299 0.61848497 -0.260316 0.901546 0.345617
6.57031822 -0.40628600 0.61350399 -0.082194 0.922994 0.375935
6.56481886 -0.41551700 0.64068198 0.170702 0.918405 0.356922
6.55620909 -0.41834101 0.64218903 -0.443563 0.825563 0.348852
6.55953598 -0.41499200 0.63536203 -0.297233 0.943274 0.147938
6.55767822 -0.41810399 0.61563700 -0.949660 0.270754 -0.157603
6.55603504 -0.42216101 0.61903501 -0.962429 0.072087 -0.261791
6.55670309 -0.42459801 0.61849201 -0.923927 -0.082277 -0.373617
6.56464720 -0.41475800 0.63725501 0.059186 0.960830 0.270745
6.55611277 -0.41835099 0.62186998 -0.923643 0.347938 -0.160694
6.55519104 -0.42433199 0.62067598 -0.926130 -0.045978 -0.374393
6.55686617 -0.41657600 0.62648702 -0.778271 0.627367 -0.026548
6.57108116 -0.41922000 0.63853699 0.704118 0.568265 0.425784
6.58274412 -0.41042301 0.61124599 0.591581 0.632031 0.500569
6.57939100 -0.41823000 0.62485301 0.733473 0.458627 0.501676
6.57389021 -0.41518301 0.62719899 0.519173 0.724851 0.452825
6.56883717 -0.41463101 0.63284600 0.388621 0.864797 0.317963
6.57475090 -0.41127801 0.61883801 0.370187 0.799668 0.472750
6.58334208 -0.41745800 0.61801100 0.752088 0.401441 0.522693
6.55920982 -0.41747200 0.60952699 -0.969171 0.155324 -0.191267
6.56265211 -0.42132199 0.59965098 -0.886632 -0.254814 -0.385946
6.56372786 -0.42322901 0.59908199 -0.805813 -0.395698 -0.440554
6.56141710 -0.41214901 0.60597801 -0.855097 0.499657 -0.138389
6.55970383 -0.41338700 0.61428201 -0.842867 0.535353 -0.054514
6.55968285 -0.41667700 0.60548401 -0.962415 0.161057 -0.218671
6.55832291 -0.41525501 0.62194598 -0.744860 0.667184 -0.006935
6.56488705 -0.41291299 0.59284401 -0.942067 0.139616 -0.304986
6.56133509 -0.41648000 0.60137302 -0.946219 0.115782 -0.302098
6.55809879 -0.41571599 0.61840898 -0.907131 0.407028 -0.106966
6.55756283 -0.42028201 0.61486900 -0.963176 0.122821 -0.239178
6.56382418 -0.43507901 0.61272001 -0.472155 -0.748539 -0.465575
6.55610800 -0.41953799 0.61901599 -0.944432 0.261809 -0.198756
6.55429077 -0.42147800 0.62642097 -0.924386 0.328828 -0.193345
6.55298185 -0.42256400 0.63070202 -0.880828 0.409861 -0.236974
6.55911684 -0.42766500 0.61329001 -0.862132 -0.321186 -0.391878
6.56802082 -0.42937201 0.60123003 -0.473517 -0.722736 -0.503423
6.58156300 -0.42470801 0.62450302 0.891303 0.039104 0.451719
6.57601595 -0.42429000 0.63349497 0.861936 0.318041 0.394862
6.57408619 -0.42225799 0.63474399 0.789168 0.435906 0.432665
6.57346487 -0.42489299 0.64096099 0.861462 0.355989 0.362153
6.58546305 -0.42868301 0.61164403 0.876916 -0.457961 0.145912
6.55030012 -0.43529999 0.63263297 -0.769795 -0.374364 -0.516978
6.55048084 -0.43288100 0.63112599 -0.844214 -0.155241 -0.513034
6.54692411 -0.42920500 0.63804197 -0.845188 0.288940 -0.449634
6.55019188 -0.42865399 0.63210702 -0.859449 0.153735 -0.487558
6.54820490 -0.42979401 0.63509703 -0.884984 0.188699 -0.425670
6.57828188 -0.43294600 0.62790400 0.895989 -0.381053 0.228043
6.58608389 -0.42587799 0.61261702 0.923206 -0.296285 0.244757
6.57746601 -0.42570800 0.63201803 0.904712 0.122031 0.408172
6.57858419 -0.42982301 0.63118601 0.925676 -0.073679 0.371074
6.57489014 -0.42775801 0.63970703 0.895815 0.098916 0.433279
6.56414509 -0.43308300 0.61016703 -0.535129 -0.698501 -0.475114
6.55248880 -0.43081599 0.62793201 -0.828746 -0.130546 -0.544185
6.55657911 -0.42585900 0.61914498 -0.912058 -0.112104 -0.394441
6.56975889 -0.42828700 0.59704298 -0.467951 -0.732518 -0.494408
6.55377483 -0.42433700 0.62421399 -0.944787 0.096461 -0.313167
6.56278610 -0.42796999 0.60550499 -0.761102 -0.476303 -0.440294
6.56662178 -0.43355700 0.60904998 -0.403535 -0.786002 -0.468360
6.56792498 -0.42740500 0.59817302 -0.583132 -0.653713 -0.482303
6.56524611 -0.42900199 0.60289598 -0.611306 -0.621410 -0.490055
6.57271004 -0.41955599 0.58084601 -0.642325 -0.612138 -0.461200
6.56978178 -0.42264301 0.58898199 -0.674742 -0.591441 -0.441498
6.56792593 -0.41893801 0.58776999 -0.855158 -0.352307 -0.380243
6.57280302 -0.42361099 0.58718401 -0.491840 -0.701913 -0.515181
6.58008194 -0.42430300 0.58224702 -0.269504 -0.842393 -0.466627
6.57506418 -0.41895601 0.57766300 -0.577089 -0.651118 -0.492965
6.58465481 -0.43005100 0.59548002 0.447855 -0.873539 -0.190671
6.59002876 -0.42565900 0.58892602 0.488332 -0.862189 -0.134762
6.57592010 -0.43599001 0.60882300 0.184176 -0.945435 -0.268760
6.59194708 -0.42434001 0.58830100 0.645226 -0.763307 -0.032332
6.59115314 -0.42433399 0.58357197 0.465284 -0.870767 -0.158984
6.58182478 -0.42582801 0.58451599 -0.043188 -0.927881 -0.370367
6.58769321 -0.42816699 0.59624100 0.578492 -0.808723 -0.106373
6.58640289 -0.42760301 0.58920002 0.364968 -0.896906 -0.249715
6.58966589 -0.42523500 0.58453703 0.370558 -0.906929 -0.200418
6.58686399 -0.42518300 0.58208400 0.261487 -0.931457 -0.253006
6.58576393 -0.42601499 0.58393300 0.267834 -0.923812 -0.273563
6.59312487 -0.42279199 0.58246398 0.573433 -0.811019 -0.115860
6.59237099 -0.42304301 0.58397400 0.528598 -0.840224 -0.120864
6.58149481 -0.42010999 0.57492602 -0.278746 -0.823781 -0.493646
6.58391809 -0.42533699 0.58244503 0.068437 -0.919196 -0.387807
6.58579206 -0.42439201 0.57960403 0.122749 -0.922687 -0.365489
6.58752012 -0.42086399 0.57254201 -0.017310 -0.890804 -0.454057
6.58763218 -0.41799301 0.56806099 -0.125444 -0.866571 -0.483030
6.59138823 -0.41991100 0.57114100 0.293426 -0.883288 -0.365654
6.59744883 -0.41417900 0.56264001 0.360669 -0.847805 -0.388773
6.59349298 -0.42174801 0.58011299 0.587999 -0.796404 -0.141417
6.59214211 -0.42306900 0.58079898 0.487952 -0.852050 -0.189510
6.59930611 -0.41569099 0.57070702 0.609307 -0.775619 -0.164800
6.59899282 -0.41115201 0.58445400 0.889315 -0.235276 0.392127
6.59325600 -0.42177901 0.57833201 0.496833 -0.840209 -0.217269
6.59843111 -0.41429299 0.58471400 0.890341 -0.333691 0.309749
6.59929895 -0.41277799 0.58275002 0.891307 -0.316077 0.325065
6.60030413 -0.41481301 0.56978500 0.646414 -0.755377 -0.107490
6.59148598 -0.41524401 0.56260502 0.039924 -0.860432 -0.507999
6.59265280 -0.41857499 0.56842703 0.214952 -0.879080 -0.425457
6.59152794 -0.41805100 0.56724203 0.186858 -0.878379 -0.439925
6.59304714 -0.41995099 0.57214099 0.366231 -0.876828 -0.311525
6.59396410 -0.42101100 0.57711202 0.506415 -0.830766 -0.231023
6.59272718 -0.42143199 0.57547700 0.351845 -0.883389 -0.309563
6.59366083 -0.42246401 0.58172601 0.607340 -0.786749 -0.110292
6.59036398 -0.42537099 0.59187901 0.666766 -0.745045 -0.018172
6.59003305 -0.42372501 0.60253698 0.877435 -0.420033 0.231691
6.59136295 -0.42022699 0.60243201 0.939468 -0.128416 0.317662
6.59343004 -0.42035800 0.59456199 0.897736 -0.398833 0.187089
6.58790398 -0.42739499 0.59295100 0.523641 -0.840466 -0.139344
6.58550215 -0.42976901 0.59624499 0.461946 -0.865963 -0.191611
6.58916807 -0.42657101 0.59699100 0.737932 -0.671763 0.064731
6.57932615 -0.43061301 0.59511900 0.131555 -0.920884 -0.366969
6.58595705 -0.42949900 0.59935302 0.573183 -0.816178 -0.072899
6.58812380 -0.41045299 0.60450101 0.617727 0.604262 0.503271
6.58328485 -0.43072101 0.61787200 0.834985 -0.486174 0.257749
6.58352089 -0.42848799 0.61968201 0.901197 -0.278766 0.331865
6.58570099 -0.42943600 0.60861403 0.838138 -0.535196 0.105308
6.58982086 -0.41086400 0.60272503 0.707153 0.470881 0.527453
6.58855200 -0.42111999 0.60774702 0.916268 -0.009072 0.400462
6.58781004 -0.42302400 0.61045998 0.911152 -0.086061 0.402983
6.59217215 -0.42316699 0.59100097 0.795517 -0.597003 0.103636
6.59390402 -0.41736200 0.59581399 0.927390 -0.189981 0.322265
6.58729506 -0.40398499 0.59708101 0.423832 0.666497 0.613310
6.58209276 -0.41947001 0.62103099 0.813336 0.328188 0.480392
6.58250380 -0.42328200 0.62177700 0.884896 0.082219 0.458474
6.58501387 -0.42119199 0.61639202 0.908737 0.069276 0.411580
6.58823681 -0.41660601 0.60800397 0.846813 0.177102 0.501540
6.58471489 -0.41651401 0.61453402 0.840234 0.319569 0.438044
6.59204912 -0.40807500 0.59692699 0.703654 0.440823 0.557267
6.59506607 -0.41701099 0.59261298 0.921727 -0.310100 0.232932
6.59211397 -0.42101300 0.59750801 0.916845 -0.337181 0.213787
6.59634781 -0.41053799 0.59091198 0.891934 -0.014578 0.451931
6.60171223 -0.40274799 0.58212399 0.788621 0.073260 0.610499
6.60432100 -0.40565500 0.57749999 0.865594 -0.253160 0.432039
6.60098124 -0.40554801 0.58364600 0.839279 -0.037455 0.542410
6.59963608 -0.39957500 0.58378500 0.683761 0.294420 0.667673
6.58975697 -0.37423101 0.57999498 -0.541437 -0.538064 0.646014
6.59166002 -0.40443799 0.59493202 0.625816 0.507737 0.592079
6.58326292 -0.40801701 0.60481000 0.529497 0.699872 0.479387
6.59006977 -0.41224200 0.60368001 0.760402 0.403912 0.508570
6.59673977 -0.40784800 0.59009099 0.854899 0.077718 0.512940
6.58119106 -0.40568799 0.60648900 0.426001 0.772024 0.471702
6.58380413 -0.41084501 0.60801899 0.610296 0.620384 0.492608
6.58771420 -0.41399601 0.60740399 0.768105 0.371873 0.521272
6.59141302 -0.41024101 0.59912699 0.750767 0.387651 0.534860
6.59214115 -0.40151200 0.59121197 0.534970 0.599099 0.595724
6.59598112 -0.39504400 0.58320701 0.305902 0.472187 0.826719
6.57707596 -0.35785601 0.61663002 -0.009582 -0.817196 0.576280
6.58086300 -0.36417601 0.60115701 -0.526366 -0.850074 -0.017682
6.58259296 -0.40465701 0.60224700 0.447035 0.737360 0.506419
6.58650923 -0.37151599 0.57169098 -0.950395 0.307443 -0.047201
6.58223295 -0.36457500 0.60349900 -0.251773 -0.948572 0.191892
6.59004307 -0.40275601 0.59509999 0.456727 0.630718 0.627372
6.59422588 -0.37032700 0.58647901 0.499672 -0.624170 0.600616
6.59556484 -0.36916101 0.58556002 0.590428 -0.486136 0.644256
6.58985090 -0.40081400 0.59338701 0.453072 0.640319 0.620257
6.59573317 -0.39097300 0.58078402 0.155293 0.403193 0.901842
6.58491516 -0.39878601 0.59312898 0.191574 0.862824 0.467796
6.58020592 -0.39758399 0.59029001 -0.148713 0.940027 0.306975
6.58410978 -0.39786401 0.59102798 0.048067 0.874826 0.482047
6.58681917 -0.39131999 0.58045101 -0.193120 0.706045 0.681326
6.59739208 -0.36260101 0.57843101 0.403037 0.884897 0.233494
6.59962797 -0.40434799 0.58541101 0.795890 0.094576 0.598009
6.59237099 -0.39169800 0.58177698 0.058287 0.592821 0.803222
6.59308720 -0.39494801 0.58424503 0.172442 0.639407 0.749281
6.59018707 -0.37102801 0.58538598 -0.095292 -0.932783 0.347613
6.58753300 -0.38535899 0.57643801 -0.690550 0.234378 0.684258
6.60025978 -0.39728901 0.58178699 0.580707 0.352979 0.733611
6.59612989 -0.37023401 0.58426100 0.528756 -0.576057 0.623358
6.59636879 -0.37321001 0.58090198 0.361504 -0.610140 0.705014
6.60377312 -0.39917600 0.57890397 0.806851 0.067119 0.586930
6.61705208 -0.37871900 0.56532198 0.617726 -0.285718 0.732652
6.60710192 -0.37793800 0.57542700 0.567524 0.029139 0.822841
6.60230398 -0.36585599 0.57774103 0.712996 0.447076 0.540148
6.60271788 -0.36750001 0.57734400 0.700056 0.390384 0.597931
6.60453081 -0.36684799 0.57612801 0.683775 0.437549 0.583954
6.61141491 -0.39872301 0.56749201 0.831256 -0.376983 0.408530
6.60968781 -0.39886200 0.57030803 0.838114 -0.330546 0.433940
6.60743093 -0.37633500 0.57478797 0.575483 0.081802 0.813713
6.60080004 -0.36450800 0.57892901 0.737039 0.440245 0.512794
6.60586882 -0.38108799 0.57440299 0.541589 -0.075339 0.837260
6.60968685 -0.38886601 0.57118303 0.726200 -0.032432 0.686718
6.60851097 -0.37634200 0.57350498 0.593742 0.079070 0.800761
6.60949421 -0.37781999 0.57442999 0.604021 0.026504 0.796527
6.60869694 -0.37937701 0.57435697 0.628684 -0.029404 0.777104
6.58814907 -0.37352699 0.56263399 -0.747590 0.604738 -0.274592
6.61001921 -0.37892699 0.57361799 0.653916 -0.038133 0.755605
6.59769583 -0.36831799 0.58236802 0.760577 -0.343955 0.550651
6.60128307 -0.36896899 0.57788301 0.707401 0.244203 0.663287
6.61324501 -0.40089300 0.55989301 0.768560 -0.620586 0.155524
6.60265589 -0.40670601 0.57986701 0.859578 -0.224303 0.459144
6.60563612 -0.40458801 0.57504201 0.881274 -0.240076 0.407086
6.60700321 -0.40634000 0.56713903 0.779604 -0.608361 0.148711
6.60787678 -0.40388799 0.56931502 0.816838 -0.523456 0.242426
6.60226107 -0.41200700 0.56898898 0.699458 -0.713646 -0.038307
6.60435486 -0.40858099 0.57250899 0.828470 -0.536944 0.159150
6.59988022 -0.41530499 0.57436401 0.737038 -0.675735 -0.012539
6.60042095 -0.41427401 0.57648498 0.833798 -0.541897 0.105489
6.58785391 -0.37587199 0.57764900 -0.816721 -0.236216 0.526468
6.59387112 -0.38796201 0.57977003 -0.044485 0.435412 0.899132
6.59426785 -0.38336700 0.57850301 -0.112591 0.112591 0.987242
6.59096384 -0.38259700 0.57770097 -0.602838 -0.006866 0.797834
6.59121513 -0.37323999 0.58220702 -0.136034 -0.910165 0.391273
6.59148598 -0.37822700 0.57837600 -0.405313 -0.298249 0.864158
6.58550310 -0.38477600 0.57359397 -0.840139 0.227188 0.492495
6.60466385 -0.39266801 0.57636601 0.644843 0.209768 0.734966
6.59847212 -0.38310301 0.57795697 0.236949 0.035239 0.970883
6.60146189 -0.37964299 0.57712299 0.398235 -0.145972 0.905594
6.60122490 -0.38634801 0.57740903 0.393077 0.127295 0.910652
6.60484695 -0.37803799 0.57591498 0.508101 -0.012130 0.861212
6.59967709 -0.37377301 0.57824701 0.493972 -0.237045 0.836541
6.58666182 -0.37508500 0.57471901 -0.903674 -0.121891 0.410506
6.58653021 -0.37570399 0.57270700 -0.949396 0.047278 0.310502
6.58533192 -0.38673800 0.57446599 -0.826350 0.295236 0.479564
6.58683586 -0.37339500 0.56837797 -0.903596 0.424026 -0.060962
6.58217287 -0.38904899 0.57090199 -0.850169 0.454955 0.265008
6.58532810 -0.37968600 0.57326400 -0.928063 0.110386 0.355689
6.58591509 -0.37719899 0.57233602 -0.934878 0.042908 0.352367
6.58474112 -0.38135800 0.57202601 -0.938255 0.160726 0.306341
6.58617878 -0.37242299 0.57505202 -0.970010 -0.020485 0.242201
6.58323193 -0.38371900 0.56662202 -0.957480 0.272643 0.094327
6.58510494 -0.38638601 0.55507201 -0.843014 0.253365 -0.474483
6.59825420 -0.37194300 0.58070803 0.556637 -0.389153 0.733972
6.58916187 -0.37507001 0.55844599 -0.736257 0.549323 -0.395184
6.58413982 -0.38004801 0.56180698 -0.923464 0.329506 -0.196572
6.58477306 -0.37841299 0.56333703 -0.907365 0.392106 -0.151463
6.58862114 -0.37849101 0.55485100 -0.749684 0.472877 -0.462992
6.60421181 -0.41012800 0.56660300 0.724915 -0.688599 -0.018158
6.60105419 -0.41023001 0.55745798 0.373404 -0.818311 -0.436962
6.61203289 -0.40067801 0.56421298 0.819066 -0.493319 0.292859
6.62779617 -0.38640499 0.53570002 0.528385 -0.830746 -0.175130
6.61348915 -0.39348099 0.56606001 0.818335 -0.232709 0.525522
6.63671112 -0.37687001 0.56282800 0.105691 -0.992136 0.067052
6.61545515 -0.38400501 0.56481898 0.725176 -0.155936 0.670674
6.61218500 -0.37606701 0.56973600 0.608099 -0.015237 0.793715
6.60972595 -0.38026699 0.57247001 0.652717 -0.055702 0.755552
6.61089802 -0.38179001 0.57035297 0.707745 -0.079930 0.701932
6.63498020 -0.37410101 0.55214202 0.692023 -0.715531 -0.095502
6.61913300 -0.37173399 0.56728101 0.457386 -0.111869 0.882204
6.62723923 -0.37239099 0.56108803 0.210649 -0.449683 0.867993
6.63746977 -0.36500099 0.56395203 0.513492 0.634710 0.577468
6.63626814 -0.37227800 0.54988497 0.844710 -0.524153 -0.108296
6.63719511 -0.37341899 0.56489700 -0.194512 -0.410961 0.890660
6.63628197 -0.37653100 0.56365800 0.024535 -0.928464 0.370611
6.63947487 -0.37708199 0.56209701 0.317372 -0.946976 -0.050111
