-1.15854800 2.52871609 0.54742903 0.997365 -0.069040 -0.022305
-1.17046905 2.51229310 0.51408303 0.729839 -0.681087 -0.058789
-1.16571999 2.58247805 0.53702199 0.882621 -0.469932 -0.011981
-1.15896106 2.55940795 0.58618301 0.945063 -0.226980 -0.235234
-1.16059303 2.53808999 0.55746001 0.981475 0.182461 0.058435
-1.16532505 2.54199409 0.56432098 0.985246 0.157308 0.067418
-1.15807295 2.53461504 0.54689097 0.992522 0.120607 -0.018810
-1.16812098 2.57386494 0.53784400 0.999374 -0.035367 0.001010
-1.17441595 2.55486107 0.49174899 0.870259 0.402476 -0.284011
-1.17364705 2.55757308 0.49640900 0.871023 0.373731 -0.318816
-1.16531205 2.53636694 0.50650400 0.998789 -0.046672 0.015557
-1.15853298 2.53650999 0.53927100 0.995218 0.060887 -0.076385
-1.18069506 2.56706810 0.48245600 0.804088 0.383587 -0.454206
-1.17180002 2.57981300 0.49746200 0.929301 -0.253962 -0.268149
-1.16872597 2.58240104 0.51531899 0.936227 -0.341291 -0.083663
-1.17055595 2.57445312 0.54809999 0.993072 -0.064397 -0.098290
-1.17220998 2.58005691 0.50428402 0.958372 -0.248467 -0.140666
-1.17116904 2.58086300 0.51017201 0.966940 -0.203226 -0.154037
-1.19848800 2.59476995 0.44711599 0.729538 -0.527716 -0.435076
-1.16192305 2.59569407 0.49570501 0.834092 -0.493082 -0.247309
-1.16520500 2.55670404 0.55528301 0.983090 0.181796 -0.022001
-1.16755795 2.56569195 0.55276299 0.996298 0.022619 -0.082935
-1.15768301 2.60717797 0.49270001 0.926855 -0.283324 -0.246307
-1.15730405 2.62681794 0.49231499 0.993586 0.020906 -0.111132
-1.16520298 2.56810498 0.57159603 0.924582 -0.166453 -0.342697
-1.16782999 2.57010508 0.56496501 0.945644 -0.118706 -0.302766
-1.16210401 2.56256700 0.57825601 0.950877 -0.134696 -0.278728
-1.17094600 2.57298708 0.56059402 0.971848 -0.088577 -0.218323
-1.15672803 2.55924106 0.59464699 0.925992 -0.288750 -0.243233
-1.16694999 2.53948092 0.59426999 0.996660 0.029029 0.076335
-1.16323698 2.53035092 0.68187499 0.935173 -0.270597 0.228536
-1.16031098 2.54429293 0.62124598 0.946396 -0.320574 -0.039593
-1.16212106 2.52466297 0.62641799 0.979902 0.196924 -0.031838
-1.16571105 2.53339911 0.62304902 0.971576 0.234100 -0.035176
-1.15321696 2.54955792 0.67150402 0.914209 -0.388643 0.114795
-1.17851901 2.52207589 0.72272700 0.909982 -0.371158 0.184863
-1.15370905 2.56731701 0.61128700 0.909931 -0.366560 -0.194061
-1.15000999 2.58435988 0.76428801 0.787934 0.595093 0.158189
-1.15959704 2.53839707 0.68544197 0.848007 -0.512307 0.135740
-1.26114404 2.48757195 0.67126101 -0.492883 -0.866406 -0.080041
-1.16345298 2.59660602 0.76814300 0.988637 0.145489 0.037804
-1.29214203 2.66404200 0.66559500 -0.643551 0.765342 -0.009688
-1.21171403 2.67958307 0.61672598 0.265117 0.947624 0.178104
-1.29086697 2.52490711 0.63449597 -0.779699 -0.613995 -0.122799
-1.24858201 2.67971992 0.63038301 -0.097281 0.995256 -0.001069
-1.25139904 2.68615198 0.56208003 -0.362971 0.923298 0.125591
-1.21574199 2.67920303 0.65096200 0.341022 0.940014 -0.008809
-1.28099799 2.49445105 0.56457299 -0.509457 -0.858400 -0.060018
-1.25839698 2.48796892 0.61346400 -0.297317 -0.953201 -0.054870
-1.19925904 2.47981501 0.51348102 0.985266 -0.123308 0.118519
-1.25630605 2.49462700 0.51503599 -0.258819 -0.965358 -0.033119
-1.25158703 2.49267602 0.50753301 -0.519682 -0.848958 -0.095919
-1.19426894 2.49144292 0.51520300 0.873302 -0.486956 0.014756
-1.27077699 2.49324489 0.52732301 -0.228828 -0.973408 -0.010671
-1.25521100 2.48945999 0.57431602 -0.418001 -0.901708 -0.110442
-1.24991298 2.49371505 0.49951100 -0.730283 -0.682071 -0.038287
-1.24623704 2.48747611 0.50968498 -0.758315 -0.650591 -0.041105
-1.25590801 2.49727702 0.49771899 -0.246104 -0.968500 0.037956
-1.26657104 2.48669505 0.65099901 -0.365263 -0.930581 0.024523
-1.28654504 2.53748012 0.54488301 -0.531820 -0.776039 0.339015
-1.19868600 2.48024607 0.50254798 0.977795 -0.157789 0.137910
-1.19617498 2.47420692 0.61655003 0.953562 -0.277519 -0.117058
-1.25448298 2.48584008 0.64899498 -0.471173 -0.880889 -0.045069
-1.28578401 2.51288199 0.65332800 -0.926923 -0.372084 -0.048647
-1.25240397 2.46998906 0.67840302 -0.939315 -0.157236 -0.304901
-1.28585505 2.47491002 0.80145001 -0.948714 -0.031582 -0.314554
-1.27427101 2.53101301 0.59239298 -0.465671 -0.822423 -0.326759
-1.27399099 2.53635097 0.59087402 -0.360649 -0.894943 -0.262695
-1.30384898 2.53275394 0.64889997 -0.721750 -0.676546 -0.146158
-1.29547298 2.53706598 0.72954899 -0.915429 -0.348121 0.201996
-1.20673001 2.50959301 0.83382100 0.743247 -0.641685 0.189274
-1.27829599 2.49550796 0.76542300 -0.979271 -0.198710 -0.039266
-1.27439296 2.47756004 0.72687501 -0.975028 0.211643 0.067286
-1.27744496 2.47123098 0.73276198 -0.999271 -0.035798 0.013296
-1.26496196 2.48582292 0.70194697 -0.925585 -0.289513 -0.243875
-1.28426504 2.47120500 0.70443499 -0.759618 0.648454 -0.049881
-1.26077402 2.47026110 0.69804603 -0.872206 -0.091589 -0.480488
-1.26310694 2.47367692 0.69686902 -0.844828 -0.045930 -0.533063
-1.25744796 2.47378612 0.69247299 -0.899405 -0.162094 -0.405951
-1.24862397 2.47404909 0.65808600 -0.916541 -0.381314 -0.120634
-1.25747895 2.48901892 0.62505698 -0.355504 -0.933686 -0.042973
-1.30923998 2.53998399 0.68388999 -0.881027 -0.447024 0.154795
-1.29038799 2.51881289 0.67682499 -0.776260 -0.628671 0.046831
-1.27912903 2.49302197 0.69669700 -0.879461 -0.475421 0.022896
-1.29327905 2.52713990 0.71651602 -0.909576 -0.409241 0.072059
-1.28201795 2.49731708 0.69727802 -0.798149 -0.601075 -0.040822
-1.29005003 2.51972198 0.68713802 -0.814097 -0.579503 0.037703
-1.29053998 2.52124190 0.73138201 -0.951908 -0.266427 0.151288
-1.28866196 2.52005196 0.69238400 -0.819076 -0.571808 0.046363
-1.28476703 2.51459002 0.68467599 -0.856301 -0.515959 0.023143
-1.31139898 2.61313510 0.73550498 -0.989554 0.028273 0.141365
-1.35307395 2.58609009 0.61976999 -0.759006 -0.082721 0.645808
-1.28830898 2.52004004 0.64869899 -0.832811 -0.542127 -0.111914
-1.29139698 2.53588295 0.74896300 -0.950636 -0.252872 0.179850
-1.30750501 2.56813693 0.72823799 -0.933898 -0.256997 0.248571
-1.27900398 2.47275805 0.72503501 -0.940891 0.330299 0.075008
-1.33721602 2.61034799 0.63230199 -0.798937 0.397057 0.451713
-1.28767896 2.49283600 0.49092001 0.619831 -0.586053 0.521874
-1.28738499 2.53770995 0.77477598 -0.971766 -0.225963 0.067912
-1.29503798 2.53452802 0.60926902 -0.454818 -0.839784 -0.296486
-1.32323205 2.55474806 0.63624501 -0.629477 -0.707150 0.322020
-1.28401399 2.49896789 0.66777599 -0.852813 -0.512830 0.098566
-1.28236496 2.49533796 0.70901400 -0.872559 -0.484138 -0.065199
-1.29705405 2.52753305 0.63730502 -0.716204 -0.683033 -0.143241
-1.39444602 2.52588701 0.51806802 -0.695997 -0.355368 0.623941
-1.27618206 2.53148103 0.59814101 -0.517223 -0.778252 -0.356095
-1.31142604 2.54326510 0.54493898 -0.099581 -0.994711 0.025169
-1.30238795 2.54218507 0.56149298 -0.145425 -0.987726 0.057007
-1.28380704 2.50037408 0.65981102 -0.877299 -0.479626 0.017465
-1.27463698 2.48686099 0.60667503 -0.300391 -0.953522 -0.023682
-1.28134000 2.49140096 0.60087198 -0.514097 -0.857723 0.004027
-1.28331697 2.49444103 0.62655199 -0.741051 -0.671273 0.015351
-1.27741504 2.48801398 0.61604702 -0.318211 -0.946964 -0.044728
-1.28418899 2.49792099 0.63893098 -0.867000 -0.498291 -0.004008
-1.27197695 2.53233290 0.58617002 -0.935357 0.328124 -0.132066
-1.29150796 2.47382307 0.48649299 0.893031 -0.132038 0.430188
-1.28619695 2.48121095 0.48448399 0.935153 -0.190365 0.298749
-1.28725195 2.50068808 0.57830799 -0.777223 -0.628244 -0.035137
-1.33070803 2.54465294 0.58624500 -0.057487 -0.993063 0.102575
-1.37139201 2.52310801 0.54276401 -0.354180 -0.793299 0.495211
-1.29417706 2.53786707 0.58828300 -0.260691 -0.942074 -0.211036
-1.29941595 2.52820396 0.51736999 -0.382003 -0.305907 0.872063
-1.28945398 2.51960492 0.51897103 -0.786627 -0.231178 0.572516
-1.27886701 2.53474903 0.59864002 -0.517223 -0.778252 -0.356095
-1.32662106 2.53490400 0.52273297 0.226783 -0.661582 0.714758
-1.28941095 2.51886392 0.65813500 -0.805459 -0.584067 -0.100500
-1.32272100 2.54880691 0.61502397 -0.450528 -0.853712 0.261153
-1.33805299 2.57907701 0.64453000 -0.887025 -0.176240 0.426762
-1.31672704 2.62174702 0.68549103 -0.910832 0.376553 0.169094
-1.32130098 2.56250501 0.66442502 -0.863312 -0.468061 0.188710
-1.31661701 2.61339903 0.70405298 -0.970051 0.167869 0.175558
-1.32733202 2.62656689 0.63609499 -0.810258 0.505035 0.297357
-1.24389398 2.68289304 0.68135899 -0.024339 0.997882 -0.060317
-1.23235798 2.68215299 0.67703098 0.020060 0.997722 -0.064403
-1.36329901 2.61849093 0.60856098 -0.103514 0.241533 0.964856
-1.31720996 2.54781508 0.62336200 -0.583162 -0.805319 0.106694
-1.34549499 2.58434701 0.63156301 -0.835491 -0.133620 0.533011
-1.33587003 2.63637090 0.60651302 -0.468285 0.708260 0.528278
-1.33576405 2.62920690 0.61466599 -0.563205 0.613944 0.553057
-1.32307100 2.59063196 0.68854898 -0.970523 -0.022907 0.239918
-1.35985899 2.64241099 0.59438998 -0.253246 0.769177 0.586714
-1.31408596 2.64424801 0.63954598 -0.789865 0.585930 0.181106
-1.29014897 2.66831493 0.67166698 -0.571352 0.820368 -0.023518
-1.30724299 2.63996100 0.72125602 -0.929860 0.362128 0.064997
-1.31016505 2.63294291 0.71725500 -0.945535 0.316917 0.074339
-1.30092597 2.66067290 0.61939102 -0.570867 0.814902 0.100229
-1.31079602 2.60204697 0.74082297 -0.983242 -0.060489 0.171978
-1.32338703 2.61178803 0.67449600 -0.927020 0.277679 0.252047
-1.28478098 2.52239108 0.78306299 -0.981806 -0.176222 -0.070728
-1.31748295 2.58991003 0.71133697 -0.969101 -0.047902 0.241968
-1.33664501 2.22798109 0.68715203 0.570215 0.709050 0.414852
-1.30185199 2.59019303 0.82279599 -0.982700 -0.176625 0.055714
-1.29892099 2.66382694 0.59256703 -0.474463 0.873412 0.109711
-1.29865205 2.67037392 0.55247200 -0.326847 0.930472 0.165510
-1.31305504 2.65355492 0.61346900 -0.648161 0.740099 0.179279
-1.29699302 2.65919495 0.70470101 -0.703826 0.709490 0.035404
-1.29727197 2.66334796 0.74149001 -0.852898 0.500582 -0.148266
-1.30154705 2.65233898 0.72968000 -0.908004 0.415664 -0.052462
-1.27205598 2.67693400 0.68595600 -0.402670 0.913700 -0.054849
-1.25819302 2.67823601 0.64086503 -0.207351 0.978182 -0.012886
-1.30344701 2.65630698 0.64559501 -0.686299 0.723865 0.070797
-1.28687501 2.66788292 0.67981398 -0.591812 0.806018 -0.009612
-1.31773102 2.64719105 0.62038898 -0.678216 0.687746 0.258898
-1.29001606 2.67733407 0.74750298 -0.725070 0.646429 -0.237496
-1.29597199 2.66203690 0.69159198 -0.737010 0.675708 -0.015325
-1.28107500 2.70625401 0.78511500 -0.764098 0.489219 -0.420499
-1.22758603 2.68099809 0.61925298 0.059974 0.992395 0.107500
-1.23291802 2.68153691 0.62218499 0.030143 0.998883 0.036380
-1.19312406 2.66727996 0.66837698 0.648328 0.758067 -0.070753
-1.29583502 2.66489196 0.60856497 -0.505188 0.858961 0.083490
-1.24847305 2.68096805 0.66456002 -0.064918 0.995777 -0.064918
-1.22661400 2.68193102 0.67192602 0.137336 0.990383 -0.016748
-1.30345702 2.65869904 0.61450797 -0.570698 0.814661 0.103103
-1.25730002 2.67563605 0.49285701 -0.350081 0.934860 -0.059002
-1.26131499 2.67493796 0.50660098 -0.186912 0.978540 -0.086737
-1.25311005 2.67652988 0.49645501 -0.607573 0.788242 -0.097620
-1.28723395 2.66893196 0.61894202 -0.465777 0.884025 0.039381
-1.20946205 2.68485188 0.59820801 0.346055 0.906753 0.240925
-1.24192703 2.68703890 0.57318503 -0.311476 0.939870 0.140096
-1.33954597 2.67205191 0.53312403 0.023292 0.962320 0.270921
-1.23108697 2.69075489 0.57510799 -0.176425 0.959062 0.221526
-1.21422803 2.68860102 0.58423603 0.148713 0.940027 0.306975
-1.32363498 2.64544702 0.60511398 -0.550651 0.760577 0.343955
-1.29714096 2.66749811 0.57528001 -0.444782 0.885274 0.135866
-1.29969800 2.66289806 0.60812598 -0.528508 0.844758 0.084048
-1.33875704 2.65496492 0.57799500 -0.101530 0.899859 0.424199
-1.31977403 2.63947606 0.62720603 -0.732798 0.635092 0.244266
-1.32624900 2.64861393 0.59604400 -0.465346 0.804362 0.369399
-1.41301000 2.61751509 0.63807601 0.762220 -0.049865 0.645394
-1.29035795 2.68412495 0.47943199 0.073736 0.992605 0.096425
-1.29524398 2.67660189 0.51999402 -0.087849 0.983191 0.160054
-1.31678700 2.67970705 0.49906200 -0.025093 0.973842 0.225836
-1.35276902 2.67589688 0.51132202 -0.178116 0.970026 0.165302
-1.27901196 2.67742610 0.52387398 -0.057963 0.998024 -0.024239
-1.26442397 2.67838907 0.46696901 0.025021 0.995401 0.092469
-1.24001396 2.70191097 0.43091300 -0.732924 0.680275 0.006927
-1.28708506 2.68203902 0.48844099 0.149351 0.982315 0.112924
-1.24380600 2.69135904 0.54763502 -0.514854 0.847394 0.129807
-1.27287304 2.67970300 0.55829799 -0.294182 0.955152 0.033800
-1.25120997 2.68098092 0.51664197 -0.642594 0.753437 -0.139304
-1.24053299 2.69180298 0.50065100 -0.760132 0.649768 0.001380
-1.22432697 2.68118095 0.63780099 0.121472 0.992565 -0.007660
-1.20119596 2.68317604 0.58678800 0.450224 0.832994 0.321589
-1.23018599 2.68045306 0.65350997 0.104739 0.994485 -0.005399
-1.24375403 2.68522310 0.58367002 -0.258582 0.945399 0.198383
-1.22918296 2.68425894 0.60694200 -0.026563 0.985126 0.169770
-1.21751404 2.68099809 0.70065397 0.210725 0.969334 -0.126435
-1.26132202 2.72276998 0.77966100 -0.252634 0.337332 -0.906853
-1.24746597 2.68070102 0.65128398 -0.064536 0.997668 -0.022217
-1.26058102 2.68278694 0.70896798 -0.253920 0.952535 -0.167936
-1.27025795 2.67894197 0.69549698 -0.398962 0.914791 -0.063135
-1.20705104 2.67999601 0.72488999 0.344740 0.925354 -0.157715
-1.27912402 2.67338800 0.64433903 -0.390178 0.920717 -0.006439
-1.25528002 2.68140507 0.68520802 -0.178966 0.980051 -0.086439
-1.27570403 2.67672706 0.71808499 -0.538012 0.825751 -0.169346
-1.28993297 2.67240095 0.73327702 -0.695809 0.680103 -0.230889
-1.28591800 2.67011499 0.70920801 -0.621917 0.781310 -0.052657
-1.29597104 2.66278291 0.71650499 -0.767655 0.640861 -0.001378
-1.29012501 2.75065398 0.81944698 -0.750510 0.645228 -0.142883
-1.28616202 2.75282598 0.81657600 -0.611864 0.772801 -0.168528
-1.28958201 2.74800706 0.81595898 -0.821002 0.481926 -0.306110
-1.27270997 2.74284911 0.87315702 0.150638 0.987769 0.040247
-1.33625698 2.75528193 0.91846102 0.136381 0.882889 -0.449340
-1.30310202 2.74641609 0.91268498 0.141570 0.988690 0.049492
-1.29166603 2.72126603 0.81992698 -0.891785 0.187668 -0.411705
-1.29227996 2.74389100 0.86221403 -0.462726 0.882116 0.088072
-1.26505303 2.74700999 0.83182198 0.125945 0.970663 0.204819
-1.25903594 2.70637393 0.76875001 -0.305146 0.686174 -0.660342
-1.29327095 2.73772812 0.82751000 -0.909982 0.371158 -0.184863
-1.27115405 2.72391605 0.78513998 -0.593678 0.167680 -0.787039
-1.26835001 2.73287702 0.78447300 -0.522343 0.152412 -0.839004
-1.31148696 2.74605703 0.90081000 0.032089 0.978109 -0.205605
-1.27713501 2.72280407 0.79167902 -0.754618 0.158787 -0.636662
-1.25890005 2.75837302 0.79965800 -0.190771 0.942875 -0.273118
-1.22702003 2.73638797 0.79725498 0.664590 0.347808 -0.661324
-1.22629702 2.75781298 0.80229199 0.565841 0.682681 -0.462354
-1.22383296 2.75502706 0.80431998 0.687755 0.594949 -0.415967
-1.26951504 2.74993491 0.82168299 -0.115259 0.977844 0.174748
-1.22709501 2.75175810 0.82907897 0.322512 0.944032 0.069203
-1.21207094 2.73289990 0.87051702 0.736887 0.674173 0.049886
-1.22047496 2.73919106 0.80658501 0.818468 0.376654 -0.433868
-1.21698904 2.74872994 0.81622797 0.856721 0.426054 -0.290701
-1.20678496 2.72067690 0.83869100 0.875468 0.480891 -0.047952
-1.25270700 2.75991893 0.79839599 0.003673 0.956221 -0.292621
-1.25351501 2.74440789 0.84369302 -0.064381 0.986790 0.148662
-1.21228802 2.72933602 0.82245398 0.936165 0.287944 -0.201700
-1.20963204 2.72861791 0.83156002 0.948641 0.312809 -0.047241
-1.19831896 2.71641707 0.86801702 0.817343 0.569401 -0.087933
-1.21883905 2.73827410 0.88737798 0.427429 0.890837 0.153990
-1.21101797 2.73251891 0.88597602 0.627025 0.773184 0.095004
-1.24597800 2.74133205 0.89354402 -0.003275 0.992356 0.123362
-1.28386104 2.74638700 0.91170400 0.110458 0.968727 0.222185
-1.28588903 2.74869108 0.86914301 -0.069763 0.997078 -0.031125
-1.28164995 2.74902010 0.87298000 -0.005073 0.999356 -0.035510
-1.33391905 2.76083493 0.94842201 0.406123 0.907886 -0.103956
-1.28936505 2.73294997 0.94742399 0.486781 0.836895 0.250301
-1.29381895 2.73317504 0.95929301 0.523978 0.808647 0.267464
-1.30805099 2.74336195 0.96357000 0.642757 0.744002 0.182549
-1.31690204 2.75144792 0.93911499 0.432832 0.899585 -0.058344
-1.28144395 2.73496795 0.93276697 0.392597 0.843066 0.367570
-1.29251599 2.74166989 0.92713499 0.333966 0.897999 0.286469
-1.21518505 2.72377110 0.93218100 0.474011 0.784626 0.399593
-1.32759500 2.66272402 0.93464202 -0.936806 -0.342218 -0.072672
-1.34067702 2.68554807 0.87483197 -0.865817 -0.426085 -0.262323
-1.34125102 2.68372202 0.89031798 -0.763912 -0.638298 -0.094941
-1.33972502 2.67898703 0.97599798 -0.590275 -0.774054 0.228946
-1.32916605 2.66418195 0.94933301 -0.868618 -0.495394 0.009398
-1.18470597 2.67802310 0.97105402 0.037123 0.998067 -0.049850
-1.23398602 2.69495010 0.97321302 0.276593 0.685886 0.673095
-1.28003001 2.72790909 0.95985401 0.417695 0.833814 0.360951
-1.19756401 2.68613195 0.93281901 0.490944 0.820331 0.293311
-1.18646300 2.68479800 0.90509099 0.653163 0.735764 0.178970
-1.21769297 2.72637200 0.92003602 0.450074 0.825926 0.339530
-1.19757700 2.71068406 0.90360701 0.853712 0.450528 0.261153
-1.21787405 2.69902706 0.96204001 0.633647 0.610117 0.475656
-1.23112202 2.74084806 0.90377098 0.236133 0.911212 0.337540
-1.17857802 2.67862105 0.90490699 0.559237 0.825267 0.078665
-1.20477104 2.72606611 0.89750600 0.758980 0.616768 0.208681
-1.20564198 2.72740006 0.88314998 0.724786 0.687909 0.038296
-1.28369296 2.74832010 0.90682697 0.149756 0.975304 0.162341
-1.27338600 2.71257401 0.78099602 -0.622425 0.442206 -0.645787
-1.24002397 2.72225189 0.78041297 0.212993 0.540911 -0.813664
-1.28395200 2.72724795 0.80277199 -0.861070 0.059816 -0.504957
-1.21683598 2.75170708 0.82781500 0.808283 0.588716 -0.009606
-1.25510097 2.71625900 0.77502102 -0.135606 0.508885 -0.850086
-1.29340601 2.68107796 0.76375997 -0.735447 0.638636 -0.226411
-1.29823303 2.70953012 0.82351798 -0.752189 0.386700 -0.533549
-1.29699099 2.73201704 0.83395302 -0.902460 0.343023 -0.260580
-1.28016996 2.75490594 0.81941700 -0.225143 0.969748 0.094333
-1.28171206 2.75447893 0.81129700 -0.603973 0.744209 -0.285254
-1.27158499 2.75744200 0.79822397 -0.416746 0.812735 -0.407166
-1.30515301 2.73445511 0.85930097 -0.560964 0.784092 -0.265554
-1.33115101 2.69425511 0.85260701 -0.811391 -0.081857 -0.578744
-1.30961299 2.67740297 0.81306601 -0.938202 0.152030 -0.310908
-1.30597496 2.68572092 0.81230801 -0.827714 0.348428 -0.439871
-1.30837405 2.64504099 0.77556401 -0.992991 0.100542 -0.062133
-1.31751096 2.66640997 0.83676499 -0.924310 -0.313783 -0.217234
-1.30871403 2.62513208 0.78755301 -0.999046 -0.042184 0.011318
-1.30190897 2.61703801 0.86068898 -0.970886 -0.235699 -0.042743
-1.29892898 2.58773804 0.79146999 -0.957124 -0.283451 0.059741
-1.31000900 2.63331199 0.79007697 -0.998373 -0.049445 -0.028405
-1.31154501 2.66053891 0.81200200 -0.991021 0.016721 -0.132656
-1.30966699 2.64530611 0.82527602 -0.970995 -0.232596 0.055380
-1.30680299 2.64083695 0.86680698 -0.937868 -0.304359 -0.166640
-1.30535400 2.62665009 0.86414599 -0.971848 -0.218323 -0.088577
-1.31018806 2.64035797 0.81179303 -0.991309 -0.125468 0.039562
-1.30620897 2.62931800 0.82240403 -0.985904 -0.118308 0.118308
-1.31271601 2.65480995 0.83319098 -0.948665 -0.316222 -0.006200
-1.30821204 2.62276793 0.89500201 -0.895554 -0.406544 -0.180847
-1.34762394 2.68657494 0.95215303 -0.677359 -0.732241 -0.070769
-1.31916595 2.65618992 0.88994497 -0.882540 -0.449163 -0.139197
-1.32939398 2.66841507 0.92753798 -0.877190 -0.475318 -0.067903
-1.33011496 2.66728401 0.97006202 -0.696713 -0.664827 0.269438
-1.32167494 2.66144300 0.87027198 -0.801315 -0.580468 -0.144744
-1.31235397 2.65239191 0.86681300 -0.839221 -0.530876 -0.117811
-1.32465506 2.65150189 0.92258197 -0.963651 -0.241235 -0.114813
-1.27148104 2.63380694 0.99217403 -0.670082 -0.009711 0.742223
-1.26892900 2.62423897 0.99568897 -0.828982 0.051899 0.556862
-1.32832098 2.67054105 0.90287203 -0.784306 -0.619922 -0.023682
-1.32009804 2.63783503 0.90930301 -0.931268 -0.291638 -0.218376
-1.29003000 2.59017897 0.90377200 -0.929333 -0.352412 0.110214
-1.29254901 2.57872510 0.87498301 -0.988868 -0.066079 0.133318
-1.29587400 2.59162903 0.86087197 -0.979671 -0.172883 0.101768
-1.28715503 2.58690596 0.91955900 -0.941135 -0.318187 0.114118
-1.28838801 2.59188890 0.91845000 -0.942008 -0.311307 0.125332
-1.30335104 2.61060405 0.90339702 -0.851291 -0.524395 0.017707
-1.29753196 2.60220098 0.90902102 -0.834873 -0.537641 0.118019
-1.29586005 2.59510708 0.87379402 -0.974090 -0.207227 0.090584
-1.30161202 2.60905910 0.92074502 -0.753311 -0.638117 0.159150
-1.32437098 2.64111400 0.92052400 -0.951394 -0.299009 -0.073782
-1.32345903 2.63749003 0.92407602 -0.929952 -0.354974 -0.095830
-1.30969203 2.51231909 0.95732099 -0.960993 0.220145 -0.167416
-1.30587995 2.53118300 0.98221803 -0.927209 0.370620 0.054076
-1.30752206 2.49562311 0.93098801 -0.965588 0.167646 -0.198836
-1.29485202 2.57365394 0.85146397 -0.993758 -0.061620 0.092990
-1.31035399 2.46747398 0.92487597 -0.923633 -0.317365 -0.214898
-1.29417503 2.52588701 0.86295700 -0.987997 0.035572 -0.150322
-1.28771305 2.53598094 0.76316899 -0.964679 -0.242130 0.103770
-1.29739797 2.57929397 0.78730500 -0.959445 -0.268439 0.086055
-1.30044997 2.58176899 0.82509601 -0.982448 -0.175480 0.063268
-1.29489100 2.51842690 0.85567403 -0.977288 0.122937 -0.172609
-1.29748201 2.59778905 0.86426097 -0.971526 -0.231549 0.050230
-1.29985404 2.60858297 0.86491799 -0.963797 -0.266168 -0.015800
-1.29424703 2.50897288 0.85077900 -0.973248 0.166226 -0.158613
-1.30798399 2.60690093 0.78245699 -0.984979 -0.163575 0.055309
-1.29503703 2.55111289 0.85810298 -0.999904 -0.012934 0.004975
-1.29638600 2.58049297 0.79828298 -0.973338 -0.227393 -0.030078
-1.29798698 2.60298109 0.85774201 -0.969856 -0.240329 0.040258
-1.29650998 2.49158502 0.83093500 -0.956718 0.135920 -0.257324
-1.29296005 2.56939602 0.87303400 -0.992573 -0.025565 0.118931
-1.28884697 2.53381610 0.80885702 -0.978597 -0.188895 -0.081651
-1.28942394 2.50996208 0.82392198 -0.979798 0.053835 -0.192610
-1.27892101 2.49054289 0.77717298 -0.982289 -0.034034 -0.184253
-1.29410005 2.56068802 0.78640801 -0.982006 -0.187548 0.022133
-1.29328203 2.55440903 0.80328703 -0.962811 -0.263043 -0.061670
-1.15556598 2.59727502 0.82967699 0.844294 -0.534766 -0.034546
-1.19586897 2.51363492 0.77320099 0.847508 0.248908 0.468802
-1.19596601 2.51202393 0.86246002 0.148041 -0.987330 -0.057118
-1.27647603 2.49211788 0.74398297 -0.982218 -0.137535 -0.127798
-1.27357805 2.48589301 0.73404801 -0.981287 -0.065898 -0.180921
-1.28105998 2.49696112 0.79139799 -0.972972 -0.067824 -0.220738
-1.27719796 2.48147893 0.78076398 -0.971027 0.005943 -0.238894
-1.27430797 2.47904491 0.77002603 -0.982483 -0.108085 -0.151805
-1.27330995 2.47452092 0.77168000 -0.959265 -0.216266 -0.181769
-1.22973502 2.46387506 0.82642299 0.001189 -0.969226 -0.246171
-1.20506096 2.47924209 0.84909600 0.846875 0.421107 0.324765
-1.22176600 2.50731802 0.92708403 0.334188 -0.942486 -0.006258
-1.21378899 2.46984291 0.88628203 0.927064 0.210889 0.309965
-1.22241604 2.47910404 0.88279599 0.930528 0.275346 0.241457
-1.30007303 2.53932309 0.99857998 -0.898456 0.429093 0.093039
-1.21960998 2.50587893 0.91472501 0.357286 -0.932109 0.059328
-1.30244195 2.48898101 0.87291199 -0.989750 0.132197 -0.054028
-1.30192995 2.53594708 0.93180603 -0.972381 0.233324 0.005922
-1.23756003 2.45511389 0.95791000 0.573499 -0.784871 0.234684
-1.23281896 2.45825195 0.95434397 0.740203 -0.630659 0.233172
-1.22737396 2.49150705 0.95917898 0.894674 -0.439755 -0.078577
-1.29495394 2.55521011 0.88255602 -0.989261 0.145182 -0.016882
-1.21245694 2.50307298 0.94418401 0.289797 -0.913080 -0.286885
-1.33644903 2.68759108 1.00001597 -0.207573 -0.785701 0.582741
-1.28697503 2.57973909 0.93058503 -0.993020 0.050493 0.106595
-1.30531597 2.50759292 0.93293101 -0.967973 0.164129 -0.189976
-1.28830099 2.56537700 0.95844501 -0.900489 0.426112 0.086877
-1.28755796 2.56802797 0.94985300 -0.938621 0.316496 0.137193
-1.29404199 2.55536699 0.94236499 -0.930235 0.347306 0.118493
-1.29112506 2.57707000 0.88770902 -0.987711 0.005618 0.156191
-1.17513502 2.52134609 0.88255000 0.670098 -0.742241 0.006937
-1.28346503 2.59213495 0.94722497 -0.987098 -0.069249 0.144367
-1.28671896 2.57631993 0.94668001 -0.967851 0.214081 0.132038
-1.29048002 2.60540891 0.93860102 -0.796673 -0.554410 0.240710
-1.28138101 2.58204889 0.96660000 -0.969477 0.170782 0.175918
-1.27775800 2.61512899 0.97921199 -0.856341 -0.138590 0.497466
-1.26355195 2.63796210 0.99959302 -0.676929 0.155981 0.719331
-1.29927301 2.60593891 0.92001301 -0.781313 -0.599259 0.174468
-1.29828703 2.60502195 0.91324198 -0.788277 -0.579299 0.207441
-1.30549395 2.63924193 0.85500997 -0.976934 -0.205095 -0.059466
-1.29684198 2.56948709 0.83068800 -0.987433 -0.130950 0.088480
-1.30473900 2.63790989 0.84621799 -0.973713 -0.227081 0.017834
-1.29226804 2.69745302 0.80350798 -0.789924 0.457154 -0.408693
-1.30730700 2.62141609 0.82046801 -0.986625 -0.119915 0.110417
-1.15524805 2.63833094 0.78038698 0.934275 0.352482 -0.053724
-1.20362699 2.69412088 0.77706200 0.646302 0.691657 -0.322341
-1.15172601 2.62899590 0.78160203 0.998348 0.015648 -0.055290
-1.15378106 2.63556194 0.79230601 0.986576 0.148984 -0.066867
-1.17933095 2.67547297 0.80753303 0.725806 0.671483 -0.149386
-1.15061700 2.65328407 0.86899298 0.843623 0.516774 -0.145757
-1.14994097 2.61410904 0.80554801 0.973917 -0.189757 -0.124410
-1.16269100 2.56619501 0.85085702 0.923966 0.287044 0.252770
-1.17026198 2.57931495 0.85618901 0.983674 -0.134302 0.119783
-1.16094100 2.67021108 0.90978003 0.557751 0.822791 -0.109220
-1.14264798 2.66296601 0.94030499 0.659545 0.718795 -0.219848
-1.19813097 2.68378901 0.94464201 0.435498 0.875454 0.209574
-1.18427503 2.68258595 1.01115704 -0.166415 0.986039 -0.005660
-1.16319704 2.57982612 0.87990898 0.805690 -0.586612 -0.082154
-1.16976094 2.56605196 0.93245298 0.696582 -0.713960 -0.070962
-1.12961197 2.60376501 0.98686397 0.859320 -0.494145 -0.131869
-1.16461897 2.55726194 0.87136298 0.941511 0.222589 0.253005
-1.17537498 2.57040811 0.88376403 0.963555 -0.215721 0.158196
-1.17362297 2.56762099 0.87745601 0.981287 0.065898 0.180921
-1.18126202 2.56190395 0.91167098 0.985757 -0.031202 0.165256
-1.17676795 2.56837893 0.90301001 0.932190 -0.348394 0.098196
-1.18433797 2.51949692 0.94615299 0.886295 -0.456324 -0.079059
-1.17970800 2.54295611 0.95917302 0.914732 -0.294280 -0.276884
-1.18019700 2.52164412 0.91963202 0.838623 -0.522105 0.155300
-1.19949603 2.50268698 0.96256399 0.411795 -0.910215 -0.043978
-1.17434204 2.54526997 0.97251898 0.902546 -0.364236 -0.229659
-1.17663705 2.54293203 0.96781898 0.904444 -0.338617 -0.259460
-1.17846096 2.56375194 0.90171498 0.976475 -0.180368 0.118172
-1.22022104 2.50086188 0.94597697 0.572814 -0.758938 -0.309672
-1.21365595 2.50524402 0.93839502 0.212311 -0.961334 -0.175387
-1.20299399 2.50469398 0.93315500 0.153420 -0.980662 -0.121509
-1.18990600 2.50952196 0.95848203 0.704333 -0.709868 -0.001384
-1.17288494 2.55613089 0.89799702 0.974342 0.132008 0.182296
-1.19968200 2.50544810 0.92731100 0.182946 -0.980155 -0.076329
-1.16828001 2.56072903 0.88017201 0.948571 0.163268 0.271213
-1.17149997 2.56143808 0.88556200 0.970847 0.086214 0.223657
-1.18468595 2.51494288 0.91812003 0.581412 -0.812862 -0.034857
-1.18238795 2.51515102 0.90047401 0.591519 -0.805857 0.026444
-1.20861602 2.50736594 0.89969802 0.265383 -0.962171 -0.061629
-1.21779001 2.50702500 0.88157701 0.488802 -0.872386 0.003996
-1.21943605 2.50676298 0.84549302 0.929609 -0.332102 0.159798
-1.21761000 2.50994110 0.84387702 0.916669 -0.369195 0.153012
-1.21361101 2.51279497 0.86167800 0.525041 -0.850263 -0.037208
-1.17614698 2.52318692 0.79180598 0.517894 -0.853901 -0.051373
-1.18023098 2.51878095 0.81328499 0.573736 -0.819039 0.001363
-1.16847003 2.58219790 0.83546400 0.980373 -0.193230 0.039120
-1.18601596 2.51145005 0.90220702 0.507777 -0.861479 0.004019
-1.16533601 2.54723310 0.87532502 0.969361 0.045343 0.241421
-1.17499304 2.52100801 0.86259902 0.675550 -0.737090 0.018182
-1.17454100 2.56933093 0.87521899 0.986987 0.057098 0.150320
-1.18491900 2.49054289 0.78695703 0.779023 0.546431 0.307467
-1.18795395 2.48950911 0.79486001 0.673568 0.586656 0.449602
-1.18436599 2.48442602 0.79644400 0.798789 0.454843 0.393769
-1.17453301 2.48923898 0.75506502 0.972260 0.127696 0.195969
-1.19126296 2.51098704 0.75923401 0.871188 -0.048170 0.488581
-1.18665600 2.51067209 0.75300097 0.845690 0.269573 0.460585
-1.15285599 2.56020498 0.82630199 0.896525 0.337498 0.286947
-1.20933199 2.49674702 0.79710698 0.754342 0.549940 0.358515
-1.17064595 2.54514599 0.89960301 0.963101 0.104154 0.248169
-1.18440998 2.48069310 0.79930300 0.956574 -0.057166 0.285829
-1.18217802 2.47840095 0.79434299 0.850752 -0.505180 0.144965
-1.17283797 2.52425790 0.86992002 0.763393 -0.643533 0.055649
-1.18165195 2.51668596 0.84952402 0.530341 -0.847731 -0.009495
-1.14470804 2.62582994 0.84232199 0.996075 -0.016118 -0.087036
-1.18892097 2.47357106 0.80528897 0.723448 -0.689470 0.035394
-1.15056002 2.57062101 0.80175102 0.857097 0.453579 0.244235
-1.15633094 2.57543802 0.80986601 0.868727 0.448519 0.210104
-1.14873004 2.55822706 0.79378200 0.968700 -0.160807 0.189109
-1.14864695 2.56564903 0.79628301 0.839489 0.499443 0.214047
-1.16445398 2.58670998 0.83925903 0.895156 -0.445595 -0.011900
-1.15535402 2.54087591 0.78043401 0.791353 -0.593889 0.145106
-1.14209497 2.62819290 0.87014300 0.986891 0.052432 -0.152636
-1.14933801 2.56416106 0.80611998 0.850693 0.474629 0.225942
-1.14531100 2.56266093 0.77919197 0.979704 -0.139254 0.144183
-1.16994905 2.55020094 0.89260101 0.953258 0.189576 0.235289
-1.15091896 2.59129405 0.90523797 0.798018 -0.581606 -0.157800
-1.17565405 2.56542301 0.91755301 0.823744 -0.566921 -0.006830
-1.18144798 2.55584908 0.92252302 0.978441 -0.176440 0.107345
-1.17695999 2.54987502 0.91705197 0.965867 0.156872 0.206138
-1.14486098 2.59055090 0.94420600 0.833684 -0.531603 -0.149560
-1.17878497 2.54947901 0.96076202 0.861339 -0.392919 -0.322039
-1.17534304 2.55564904 0.95903403 0.769965 -0.523576 -0.364720
-1.14466500 2.59661102 0.91843599 0.878472 -0.452985 -0.151960
-1.18142700 2.54035497 0.94694901 0.987326 -0.071444 -0.141716
-1.18031001 2.53235412 0.95103002 0.988395 -0.134198 -0.071183
-1.16395795 2.57062888 0.93026400 0.606480 -0.786506 -0.116574
-1.14676595 2.65609407 0.90658599 0.783109 0.593820 -0.184710
-1.13591397 2.60970402 0.92999703 0.934173 -0.331393 -0.132284
-1.14856195 2.64528298 0.85583502 0.877091 0.467687 -0.109459
-1.14851999 2.60444403 0.86820698 0.894456 -0.433888 -0.108121
-1.13443303 2.64412498 0.93132597 0.929090 0.342731 -0.139019
-1.13904703 2.63156509 0.88675499 0.982501 0.077976 -0.169149
-1.12557006 2.64093494 0.97218299 0.944012 0.153487 -0.292033
-1.14988303 2.66544199 0.92917001 0.660070 0.727769 -0.186173
-1.14595699 2.65932202 0.91682798 0.726556 0.644956 -0.236955
-1.15135801 2.65516901 0.88444400 0.792389 0.596884 -0.125894
-1.14316404 2.66010308 0.93367398 0.747815 0.630146 -0.209017
-1.13441706 2.64059305 0.92004001 0.935385 0.303480 -0.181534
-1.14526403 2.63801003 0.85130298 0.982055 0.175837 -0.068182
-1.14668298 2.63692808 0.83519000 0.963427 0.220324 -0.152532
-1.14751804 2.61806798 0.83102602 0.982952 -0.170792 -0.068078
-1.15909600 2.66462207 0.86911500 0.756511 0.649472 -0.076664
-1.16484201 2.66131711 0.81520098 0.766034 0.633196 -0.110699
-1.14789104 2.62009192 0.81748497 0.991260 -0.095557 -0.090952
-1.09804499 2.67904401 1.07703900 0.615289 0.520888 -0.591689
-1.20532095 2.68548012 0.94838899 0.649807 0.716210 0.254547
-1.20613599 2.71935892 0.82965302 0.890972 0.430470 -0.144443
-1.21257102 2.73286510 0.85711902 0.795875 0.599434 0.085221
-1.21005595 2.73058391 0.84223998 0.907872 0.415604 0.055145
-1.21390700 2.72629094 0.80940998 0.859852 0.328812 -0.390561
-1.17418003 2.67806101 0.87647998 0.673512 0.738463 -0.032475
-1.19444394 2.70687294 0.84642798 0.815441 0.566563 -0.118583
-1.20106399 2.69949293 0.79528397 0.754823 0.603543 -0.256860
-1.21562195 2.69779897 0.95375800 0.700071 0.567041 0.434011
-1.17908704 2.67904496 0.95180798 0.088048 0.996111 0.003182
-1.12882304 2.67641091 1.02550995 0.502563 0.815686 -0.286508
-1.11812103 2.67879605 1.04695296 0.368567 0.878190 -0.304864
-1.21906102 2.70299196 0.95755899 0.651029 0.546730 0.526543
-1.21174705 2.72225690 0.92019999 0.625189 0.721620 0.297327
-1.21858501 2.71884108 0.93986899 0.575022 0.668903 0.471082
-1.21078706 2.72928095 0.90364802 0.587995 0.756904 0.285233
-1.21290302 2.70783401 0.94305700 0.733811 0.478716 0.482029
-1.26536500 2.71451902 0.96655399 0.289997 0.728999 0.620050
-1.09521699 2.64550495 1.05775404 0.905993 0.179476 -0.383360
-1.14228499 2.68646598 1.06531298 -0.012163 0.991808 -0.127155
-1.15109301 2.68481898 1.04681504 -0.018269 0.996222 -0.084899
-1.13328898 2.68171096 1.02601600 0.431562 0.870643 -0.236081
-1.14302599 2.67726588 1.00213695 0.472823 0.853499 -0.219039
-1.14580202 2.67832303 0.99787599 0.414354 0.896093 -0.159146
-1.15294504 2.68214107 1.00762701 0.209365 0.970691 -0.118006
-1.12116003 2.66710091 1.02589095 0.710563 0.598973 -0.369230
-1.12695205 2.67819500 1.03609204 0.396313 0.878519 -0.266720
-1.11593294 2.67936611 1.04938698 0.370739 0.871161 -0.321918
-1.10588801 2.64286089 1.03590095 0.909677 0.086180 -0.406277
-1.10847497 2.62448502 1.03196502 0.882577 -0.272140 -0.383402
-1.12360501 2.58911300 1.05407596 0.485730 -0.789109 -0.375997
-1.12132597 2.61228204 1.01718104 0.847208 -0.467267 -0.252784
-1.10363805 2.59399009 1.05959105 0.658660 -0.684553 -0.312337
-1.09844196 2.60497189 1.06276703 0.862835 -0.457678 -0.214583
-1.09687197 2.61562896 1.06711698 0.916018 -0.195779 -0.350116
-1.13291204 2.58105898 1.06766999 0.593889 -0.791353 -0.145106
-1.12019801 2.58677292 1.06425703 0.475476 -0.852837 -0.215851
-1.12759697 2.58454800 1.06591499 0.553131 -0.820057 -0.146809
-1.11374402 2.59478402 1.06975496 0.490909 -0.861625 -0.128882
-1.14929700 2.55485106 1.05400896 0.781594 -0.608899 -0.135476
-1.13581502 2.57908702 1.05150902 0.743480 -0.624020 -0.240491
-1.17333901 2.53273201 1.03101099 0.699504 -0.693381 -0.172963
-1.16063201 2.54609108 1.03513098 0.756535 -0.628153 -0.181874
-1.13995600 2.59097004 0.97406399 0.857515 -0.510592 -0.062950
-1.14844894 2.56165409 1.03938198 0.815522 -0.554195 -0.166709
-1.15834701 2.56896710 0.96435201 0.676372 -0.716069 -0.172528
-1.14985299 2.57641411 0.95672101 0.762432 -0.634617 -0.126329
-1.14045405 2.67127609 0.97846901 0.642327 0.746076 -0.175458
-1.12619197 2.59666109 1.03928304 0.557616 -0.737492 -0.381011
-1.12852502 2.60167503 1.02153599 0.720405 -0.647892 -0.247492
-1.10698402 2.61057401 1.04418099 0.778172 -0.380188 -0.499906
-1.12746203 2.60701704 0.99605000 0.874107 -0.474596 -0.103419
-1.15155804 2.56552505 1.01467204 0.794258 -0.569961 -0.210471
-1.12086594 2.65962601 1.01262701 0.820541 0.484794 -0.302800
-1.11685300 2.68483400 1.06491196 0.261126 0.908837 -0.325314
-1.10039103 2.61710191 1.05594003 0.911293 -0.199480 -0.360212
-1.13552296 2.67846298 1.01893699 0.554788 0.787390 -0.268750
-1.14101303 2.67928505 1.01102698 0.305504 0.935866 -0.175561
-1.15728498 2.68380189 0.99027199 0.219814 0.972399 -0.078239
-1.13782895 2.66800094 0.98435301 0.664650 0.728530 -0.165782
-1.16802895 2.68199992 0.97972399 -0.042891 0.995295 -0.086882
-1.12356496 2.62853503 0.97510397 0.952941 -0.028801 -0.301785
-1.11813402 2.63670897 0.98972797 0.957915 0.096955 -0.270181
-1.17615700 2.67961788 0.96121299 -0.009987 0.990895 -0.134265
-1.15883899 2.68572807 1.03788400 -0.106833 0.992988 -0.050605
-1.17112303 2.68396807 0.99932700 -0.024095 0.998391 -0.051334
-1.13318801 2.68168092 1.03530097 0.297441 0.934216 -0.196898
-1.14621103 2.68250299 1.01727200 0.206581 0.968749 -0.137293
-1.13171804 2.68724489 1.06957304 0.053328 0.982413 -0.178944
-1.13303006 2.68661904 1.05199099 0.196055 0.961853 -0.190792
-1.13668096 2.68694997 1.05778801 0.099840 0.977441 -0.186121
-1.12650895 2.68181801 1.04377699 0.270701 0.923819 -0.270701
-1.12813401 2.68603706 1.06212795 0.179477 0.933557 -0.310258
-1.13126600 2.58523512 1.05407906 0.609944 -0.729036 -0.310605
-1.13151896 2.58283710 1.06037605 0.557145 -0.748816 -0.358977
-1.18652594 2.51786900 1.04440999 0.681382 -0.722947 -0.114306
-1.18894398 2.51768708 1.00123405 0.750469 -0.653540 0.098398
-1.26740694 2.60218191 1.00057900 -0.894132 0.221698 0.389072
-1.14560699 2.56690693 1.02877998 0.795262 -0.575459 -0.190802
-1.23493600 2.61671710 1.06074297 -0.979604 0.139591 0.144532
-1.17303097 2.54814291 0.98470598 0.813484 -0.549897 -0.189359
-1.27798200 2.57038403 1.01562798 -0.847625 0.499041 0.180251
-1.17989600 2.53226709 0.94013602 0.990630 -0.067883 0.118507
-1.22711802 2.50390196 0.93495297 0.734511 -0.669484 -0.110842
-1.17442000 2.53560710 1.02351105 0.728894 -0.664983 -0.162822
-1.17050898 2.53230500 1.04542005 0.699173 -0.696126 -0.162988
-1.17048395 2.54030299 1.01334298 0.740450 -0.656000 -0.146280
-1.18625402 2.52416301 1.00916398 0.760924 -0.647141 0.046936
-1.29516196 2.54620600 1.01569295 -0.833468 0.549555 0.057626
-1.21001601 2.45889091 0.87096697 0.742589 -0.663808 0.088994
-1.19358802 2.51410508 1.03056705 0.729391 -0.680088 -0.073954
-1.16661894 2.53702307 1.03752899 0.707879 -0.686567 -0.165933
-1.22829294 2.48104405 0.97768003 0.836755 -0.547372 -0.015015
-1.22048199 2.48802996 1.00074601 0.662171 -0.744029 -0.089167
-1.21996605 2.48321390 1.04912901 0.674493 -0.735154 -0.067883
-1.20501995 2.49837303 1.03463495 0.717818 -0.691610 -0.080081
-1.21167505 2.49554396 1.01681006 0.676912 -0.734157 -0.052951
-1.22182202 2.48228598 1.05791700 0.684741 -0.727449 -0.044131
-1.17081702 2.53079796 1.05857599 0.711604 -0.700104 -0.058941
-1.32164097 2.43972802 1.02033997 -0.690254 -0.583805 -0.427459
-1.30764198 2.52562094 1.04985702 -0.809250 0.587425 0.006846
-1.25939405 2.44865608 0.99664599 0.630745 -0.773771 0.058641
-1.32171202 2.49505091 1.02220201 -0.915643 0.354580 -0.189394
-1.30427694 2.53238201 0.99155700 -0.914568 0.398520 0.068897
-1.28543496 2.57360291 0.95742899 -0.961308 0.234115 0.145177
-1.27804995 2.59053802 0.98146099 -0.959919 0.118525 0.253981
-1.26633203 2.58159399 1.04030204 -0.714084 0.650751 0.258084
-1.28753102 2.55615497 1.02184498 -0.818415 0.566372 0.097051
-1.30991995 2.52116394 1.03755403 -0.857575 0.512336 -0.045572
-1.29117894 2.55462289 1.00452995 -0.835203 0.542954 0.087388
-1.31799495 2.63281894 0.91412801 -0.900243 -0.411011 -0.143641
-1.29733396 2.54820704 0.96989298 -0.877954 0.478518 0.014744
-1.30248702 2.53871298 0.96809697 -0.903171 0.428376 0.027851
-1.29095304 2.62546611 0.96837401 -0.599318 -0.541918 0.589188
-1.26706898 2.59671903 1.01045203 -0.856917 0.348655 0.379647
-1.28274202 2.56064200 1.02931404 -0.809731 0.574601 0.119035
-1.28643095 2.56267691 1.00212502 -0.845746 0.513331 0.145615
-1.26385498 2.60547090 1.00856304 -0.849316 0.265699 0.456143
-1.21593702 2.65842009 1.06964803 -0.526608 0.766417 0.367816
-1.22342503 2.67690396 1.00377405 -0.289962 0.896652 0.334571
-1.18051100 2.67472100 1.07696295 -0.439606 0.896795 0.050047
-1.18807495 2.67465901 1.06909299 -0.373142 0.912283 0.168836
-1.19962204 2.66517091 1.07248795 -0.473034 0.839751 0.266563
-1.32400596 2.68466401 0.99505800 -0.098630 -0.705130 0.702185
-1.17499006 2.68028998 0.98986900 -0.088284 0.991757 -0.092870
-1.22642696 2.69691992 0.97119802 0.441234 0.697649 0.564446
-1.22932005 2.70794511 0.95887899 0.471135 0.625386 0.622032
-1.24208701 2.61877394 1.03474700 -0.872173 0.228889 0.432347
-1.23494899 2.63787103 1.05095601 -0.941195 0.253665 0.223170
-1.17404401 2.68123293 0.99639601 -0.102131 0.993250 -0.054993
-1.23863602 2.66520500 1.00774300 -0.595421 0.645738 0.478014
-1.23402905 2.67142391 1.00905800 -0.497016 0.752905 0.431403
-1.25371206 2.61527610 1.02253997 -0.821219 0.252088 0.511909
-1.26290596 2.61943889 1.00518894 -0.846938 0.142380 0.512273
-1.27771294 2.59886193 0.97663701 -0.945535 0.074339 0.316917
-1.28813803 2.61181211 0.95922399 -0.775190 -0.495666 0.391658
-1.33310795 2.48235607 1.05629396 -0.918313 0.372063 -0.135169
-1.24256802 2.67039299 0.99946702 -0.486634 0.683963 0.543491
-1.26712596 2.57474899 1.05008805 -0.719567 0.667179 0.192604
-1.24116099 2.60543799 1.05090404 -0.884258 0.363043 0.293748
-1.24010706 2.59941292 1.06350803 -0.817860 0.533520 0.215548
-1.25640500 2.63653302 1.01253295 -0.776877 0.263161 0.572021
-1.24565804 2.64599705 1.02148795 -0.797273 0.388167 0.462257
-1.23556399 2.62609911 1.04879701 -0.968564 0.142398 0.203976
-1.24872398 2.62450695 1.02524602 -0.823867 0.179233 0.537698
-1.22976506 2.67486310 1.00648296 -0.436962 0.818311 0.373404
-1.22681296 2.67531896 1.01166701 -0.458154 0.819604 0.344012
-1.26584494 2.66715503 0.99128199 -0.204394 0.308706 0.928937
-1.23475802 2.67610002 1.00019503 -0.389606 0.803261 0.450532
-1.24069500 2.67667890 0.99146599 -0.253054 0.762304 0.595698
-1.27144897 2.60310411 0.99395198 -0.913064 0.159963 0.375135
-1.28162205 2.61166692 0.97038800 -0.877802 -0.260480 0.402012
-1.29646397 2.63459611 0.97284800 -0.545574 -0.472163 0.692395
-1.24146998 2.65986705 1.01253700 -0.642879 0.622842 0.445841
-1.33650601 2.76212096 0.95653403 0.424292 0.902136 -0.078268
-1.27867603 2.71725011 0.97257203 0.434960 0.648273 0.624942
-1.35010099 2.69570088 1.00008094 -0.321558 -0.846613 0.424083
-1.30807102 2.69974089 1.00098503 0.498492 -0.210609 0.840922
-1.30735803 2.70744991 0.99927503 0.615949 0.032271 0.787124
-1.35130894 2.69268608 0.93774098 -0.644508 -0.763494 -0.041079
-1.35452604 2.77124095 1.00554705 0.635064 0.726919 0.261311
-1.35062802 2.71063089 1.02246296 0.116311 -0.593333 0.796510
-1.34302604 2.70198488 1.01385999 0.009715 -0.736947 0.675881
-1.30857205 2.74227595 0.97223198 0.646683 0.746638 0.155991
-1.32170999 2.67532492 0.98719901 -0.230261 -0.712712 0.662587
-1.34707403 2.76699996 1.00292802 0.646920 0.713678 0.268623
-1.36096299 2.77921700 0.99773800 0.634678 0.753395 0.171987
-1.27086902 2.72211194 0.96243697 0.278944 0.795858 0.537401
-1.26550901 2.70684695 0.97399998 0.285233 0.587995 0.756904
-1.27052701 2.70229197 0.97999501 0.311323 0.461509 0.830715
-1.17007101 2.67991209 0.96226501 0.055309 0.984979 -0.163575
-1.20294201 2.68193698 0.96466899 0.410228 0.894384 0.178297
-1.20917201 2.68495488 0.96177500 0.523088 0.810397 0.263886
-1.18023002 2.67894292 0.97934198 -0.066122 0.994073 -0.086295
-1.22762299 2.68681502 0.98177600 0.105918 0.828484 0.549905
-1.23751104 2.68135595 0.98782200 -0.185111 0.772570 0.607347
-1.14291704 2.67541909 0.98931301 0.590085 0.785255 -0.187546
-1.14996803 2.67949009 0.98368102 0.388765 0.914496 -0.112064
-1.18381095 2.68019605 1.02368605 -0.176953 0.979954 0.091527
-1.25746095 2.71858001 0.95981401 0.175964 0.859119 0.480574
-1.22224104 2.68246603 0.99222797 -0.003845 0.921508 0.388341
-1.22482598 2.67143202 1.02737296 -0.488484 0.825585 0.282478
-1.22072995 2.65662909 1.05994594 -0.667816 0.641433 0.377605
-1.22301900 2.67351389 1.02117097 -0.456850 0.830494 0.318696
-1.17756104 2.67884588 1.04491997 -0.268857 0.956081 0.116723
-1.14924300 2.68570495 1.05200005 -0.018553 0.994208 -0.105860
-1.17012000 2.67938995 1.07257795 -0.382241 0.923858 -0.019436
-1.16632605 2.68336391 1.05705595 -0.255785 0.966697 0.008406
-1.20605195 2.68115211 0.99308801 0.077800 0.974348 0.211170
-1.22472095 2.66241002 1.04118299 -0.667906 0.661374 0.341302
-1.33748496 2.74726105 1.01502895 0.640762 0.482673 0.597035
-1.36514401 2.77681398 1.01748204 0.637865 0.705688 0.308436
-1.40062296 2.72858405 1.01954901 -0.540898 -0.802774 0.250964
-1.16827500 2.68286490 1.04017901 -0.191758 0.980227 0.048833
-1.40753806 2.80508399 0.95922703 0.114061 0.724360 -0.679921
-1.40807903 2.81347704 0.97521198 0.377627 0.883136 -0.278331
-1.40156698 2.47299600 0.24756899 -0.963819 -0.210549 -0.163470
-1.39984596 2.46912289 0.25548199 -0.864284 -0.476897 -0.159944
-1.45461905 2.53571296 0.29461899 -0.535326 -0.789487 0.300227
-1.44749200 2.56145191 0.38933101 -0.510528 -0.851844 0.117147
-1.43727005 2.21835399 0.55715102 -0.691818 0.461767 -0.555121
-1.43625998 2.22183108 0.55969399 -0.684422 0.503695 -0.527122
-1.38886595 2.13742089 0.59169900 -0.674087 -0.567036 0.473367
-1.45063806 2.18188596 0.62074900 -0.852030 -0.432948 0.294281
-1.43563998 2.16415906 0.61944997 -0.368816 -0.906855 0.203934
-1.42948794 2.58708596 0.51788503 -0.205700 -0.973647 -0.098487
-1.44972801 2.56516600 0.40763399 -0.474196 -0.868635 0.143564
-1.42487800 2.56553698 0.44892901 -0.537867 -0.750398 0.384191
-1.42101395 2.57928300 0.55502099 -0.410845 -0.910773 0.041217
-1.44831502 2.58491397 0.54786700 -0.137038 -0.989209 0.051821
-1.42123401 2.57567906 0.53593302 -0.508108 -0.859769 -0.051226
-1.42777503 2.57992291 0.53259200 -0.273078 -0.953794 -0.125326
-1.41743505 2.57530999 0.52975500 -0.562093 -0.825618 -0.049060
-1.39455795 2.54738688 0.54236299 -0.852837 -0.475476 0.215851
-1.44501603 2.58879399 0.60451698 -0.150638 -0.987769 0.040247
-1.39033794 2.59059691 0.60711098 0.275162 -0.492805 0.825487
-1.38702297 2.59645295 0.60730201 0.345638 -0.364072 0.864862
-1.44085598 2.58795190 0.62144399 -0.008353 -0.970179 0.242246
-1.43868005 2.58447599 0.57723099 -0.224810 -0.973365 0.044962
-1.42282104 2.58015609 0.56726903 -0.364061 -0.930379 0.043061
-1.43322301 2.58498907 0.52518898 -0.169805 -0.974804 -0.144648
-1.44755006 2.58477712 0.53234398 -0.021016 -0.999767 -0.005004
-1.44787705 2.58306003 0.51105899 0.095142 -0.991543 0.088265
-1.44970202 2.57699299 0.46540400 -0.122593 -0.971900 0.200952
-1.43607903 2.58139801 0.48872700 0.024326 -0.983449 0.179546
-1.43684196 2.56996489 0.44783601 -0.321766 -0.890468 0.321766
-1.43801296 2.49544501 0.37465501 -0.905004 -0.319327 -0.281066
-1.43927801 2.49367094 0.37915799 -0.902236 -0.418448 -0.104265
-1.44468498 2.58106995 0.49141300 0.081346 -0.986763 0.140292
-1.42739701 2.58300495 0.52375400 -0.286910 -0.948804 -0.132112
-1.41807103 2.57611489 0.52268499 -0.556347 -0.812659 -0.173387
-1.42051196 2.57927608 0.59544599 -0.262088 -0.923751 0.279274
-1.44126701 2.57609010 0.46892801 -0.117210 -0.964730 0.235708
-1.41635394 2.57765698 0.56895000 -0.412892 -0.908361 0.066333
-1.40931499 2.57053709 0.51586300 -0.714428 -0.687469 -0.130305
-1.41082895 2.52844906 0.48143700 -0.958821 0.198148 0.203467
-1.43463504 2.57377505 0.46001801 -0.212004 -0.910032 0.356225
-1.40412605 2.50040197 0.43070400 -0.257231 -0.956372 0.138509
-1.41209304 2.56632304 0.46770701 -0.751634 -0.495058 0.435849
-1.41509402 2.50761604 0.47595599 -0.853305 -0.352824 0.383909
-1.41482604 2.55324888 0.44531500 -0.903686 -0.363518 0.226287
-1.42095101 2.55903912 0.44028801 -0.675027 -0.665314 0.318898
-1.43622804 2.51495004 0.42008999 -0.984007 0.138508 0.112011
-1.40969002 2.50201011 0.43406701 -0.286807 -0.944696 0.159035
-1.44788802 2.57402110 0.45451599 -0.264957 -0.950885 0.160050
-1.42035198 2.53372192 0.39985400 -0.952288 0.008646 0.305078
-1.44309700 2.56703091 0.42951101 -0.438765 -0.873068 0.212690
-1.43670797 2.51129293 0.41675201 -0.989074 0.085245 0.120277
-1.43549895 2.51020908 0.42729199 -0.913121 -0.226477 0.338995
-1.42095399 2.55197692 0.42158300 -0.845337 -0.492737 0.206437
-1.44295502 2.50002193 0.38493499 -0.999705 0.017184 -0.017184
-1.44381201 2.49999094 0.39287201 -0.844663 -0.503808 0.180892
-1.44522500 2.49590802 0.37669599 -0.819190 -0.511411 -0.259591
-1.43343496 2.48929811 0.38419700 -0.526946 -0.847329 0.066044
-1.43036795 2.48973489 0.37605000 -0.581303 -0.801336 -0.141237
-1.43563902 2.50825095 0.37595800 -0.931815 0.331710 -0.147274
-1.43565798 2.50304198 0.37070799 -0.951005 0.198859 -0.236737
-1.43235505 2.52560592 0.31695899 -0.926737 -0.363930 0.093350
-1.42878997 2.49028897 0.39772499 -0.427400 -0.882707 0.195341
-1.42327404 2.52421093 0.37661901 -0.960645 0.244409 0.132007
-1.44603598 2.49714589 0.37931401 -0.883188 -0.452295 -0.124131
-1.42926002 2.55146003 0.38770899 -0.741480 -0.650127 0.165958
-1.43304396 2.55363107 0.38357499 -0.671556 -0.720508 0.172861
