-1.36353195 -6.45468903 0.39930499 0.000000 0.000000 0.000000
-1.35761094 -6.49540091 0.38921401 -0.767167 -0.389284 0.509816
-1.35578895 -6.50148296 0.38659099 -0.579063 -0.720138 0.382214
-1.39226604 -6.49023199 0.20685600 0.000000 0.000000 0.000000
-1.21000600 -6.46759176 0.35255700 0.862812 -0.119555 -0.491184
-1.22852504 -6.50254011 0.32600901 0.843123 -0.536784 0.031738
-1.22783899 -6.50046921 0.32866800 0.875310 -0.462890 0.139877
-1.22711301 -6.45618200 0.23784401 0.967652 0.150753 -0.202292
-1.20958495 -6.47122717 0.37901500 0.792878 0.001369 0.609379
-1.40197694 -6.45349407 0.07714900 -0.808153 0.588380 -0.026428
-1.38176405 -6.43551397 0.13494800 0.000000 0.000000 0.000000
-1.26816499 -6.38934612 0.24463700 0.317041 0.815475 -0.484237
-1.21924996 -6.48438501 0.30466700 0.916769 -0.285313 0.279520
-1.37036097 -6.42390680 0.12897600 -0.443453 0.893770 0.067273
-1.27609003 -6.41124392 0.15471201 0.524841 0.826054 -0.205372
-1.28310299 -6.38406515 0.22162899 -0.084922 0.975983 0.200612
-1.21552598 -6.42917395 0.32082501 0.924093 0.354352 -0.143130
-1.21766698 -6.42788696 0.32227701 0.922406 0.362027 -0.134546
-1.21649003 -6.42829084 0.32363901 0.923158 0.361236 -0.131484
-1.22871602 -6.38540602 0.37889400 0.748607 0.616777 -0.243258
-1.21853101 -6.49103117 0.35017300 0.364878 -0.811017 -0.457292
-1.22180200 -6.49136686 0.28222501 0.898949 -0.411721 -0.149587
-1.23005295 -6.49904919 0.24636900 0.924178 -0.375823 -0.068210
-1.20580995 -6.48070192 0.36961001 0.909655 -0.001294 0.415362
-1.23788905 -6.51049280 0.19469100 0.917197 -0.378812 -0.123496
-1.30397606 -6.56817102 0.16039599 0.215783 -0.944220 0.248768
-1.21884298 -6.48849487 0.40601799 0.880120 -0.474324 -0.020155
-1.23165500 -6.50651693 0.23336799 0.938433 -0.336569 -0.077873
-1.29517996 -6.58717489 -0.05538200 0.884304 -0.445735 -0.139023
-1.32994401 -6.60011911 -0.03945700 0.167960 -0.943578 0.285395
-1.21435499 -6.47861195 0.39107400 0.877718 -0.442535 0.183777
-1.21622503 -6.48070383 0.40178400 0.914568 -0.398520 -0.068897
-1.19963503 -6.49007177 0.36547601 0.171952 0.913763 -0.368063
-1.23797500 -6.51054192 0.40973300 0.618120 -0.786073 -0.004130
-1.39475501 -6.47802877 0.19082201 0.000000 0.000000 0.000000
-1.34692800 -6.50637388 0.37958801 0.000000 0.000000 0.000000
-1.36096096 -6.49272919 0.37475899 -0.830240 -0.338713 -0.442690
-1.33687997 -6.53911209 0.28298700 0.000000 0.000000 0.000000
-1.35007703 -6.51342106 0.33616599 0.000000 0.000000 0.000000
-1.39211905 -6.48035717 0.22523101 -0.961296 -0.270168 -0.054034
-1.37102103 -6.46262980 0.35062200 -0.721453 -0.559663 0.407778
-1.37756801 -6.46182013 0.33983400 -0.794882 -0.603653 0.061364
-1.37305295 -6.45519876 0.35437301 -0.473420 -0.159761 0.866227
-1.37646401 -6.45654583 0.35134301 -0.534220 -0.179077 0.826160
-1.38331199 -6.45834112 0.26859301 -0.982925 -0.107867 -0.149075
-1.36256599 -6.43170977 0.40245500 0.000000 0.000000 0.000000
-1.36937702 -6.46199417 0.36409700 0.000000 0.000000 0.000000
-1.36796796 -6.46025610 0.38133699 -0.938381 -0.276649 0.207139
-1.37392998 -6.44904804 0.37847301 -0.856168 -0.466589 0.221970
-1.36088502 -6.49879408 0.37969801 -0.813152 -0.580823 -0.037788
-1.31064498 -6.52716923 0.37390700 -0.245618 -0.963184 0.109307
-1.34002101 -6.50906086 0.38503999 0.000000 0.000000 0.000000
-1.33066905 -6.51288605 0.39118001 0.000000 0.000000 0.000000
-1.31842804 -6.54241991 0.30487400 -0.614069 -0.771755 0.165268
-1.32094097 -6.51938915 0.39260200 -0.624495 -0.702761 0.340782
-1.33209002 -6.51734781 0.38439700 -0.246383 -0.810430 0.531506
-1.31262195 -6.52826500 0.36682999 -0.027758 -0.971517 0.235337
-1.33462095 -6.51640081 0.36136100 0.000000 0.000000 0.000000
-1.31606603 -6.52781677 0.35806799 0.000000 0.000000 0.000000
-1.31714296 -6.51631594 0.39999801 -0.352613 -0.739351 0.573606
-1.26145899 -6.54044580 0.27942199 0.428139 -0.889434 0.160012
-1.31177402 -6.54388189 0.30974200 -0.373871 -0.843165 0.386385
-1.30572701 -6.56130600 0.25687501 0.503441 -0.848911 -0.160924
-1.31011701 -6.51845694 0.39997199 -0.268092 -0.734478 0.623433
-1.30550599 -6.51928902 0.40249699 0.000000 0.000000 0.000000
-1.32211494 -6.51653004 0.39550200 -0.600593 -0.546455 0.583674
-1.32045805 -6.52071714 0.38538101 -0.367628 -0.927696 0.065032
-1.21333098 -6.44520617 0.33243099 0.980839 0.146082 -0.128896
-1.36787105 -6.49652815 0.32073700 0.000000 0.000000 0.000000
-1.32202899 -6.57786083 0.12974700 0.000000 0.000000 0.000000
-1.27972102 -6.55311298 0.27459300 0.467462 -0.837083 -0.284204
-1.28094399 -6.55527401 0.27812299 0.399875 -0.914192 -0.065973
-1.28456199 -6.55263901 0.27313799 0.313285 -0.879315 -0.358688
-1.27257800 -6.54371691 0.29767501 0.475910 -0.865424 -0.156684
-1.27434599 -6.54567003 0.29700199 0.569753 -0.764459 -0.301634
-1.31200194 -6.53458023 0.33929399 0.000000 0.000000 0.000000
-1.32229602 -6.56114721 0.25832400 -0.546835 -0.837213 -0.006785
-1.32248998 -6.56235313 0.26312500 -0.630745 -0.773771 -0.058641
-1.29014897 -6.53507280 0.34391099 0.000000 0.000000 0.000000
-1.31723797 -6.54325914 0.29606900 -0.558837 -0.818350 0.134180
-1.31009102 -6.56564093 0.24426700 -0.203190 -0.941309 0.269538
-1.29600596 -6.55675602 0.25963500 0.318457 -0.947936 0.001239
-1.30946600 -6.57663584 0.23070499 0.910465 0.063395 -0.408698
-1.33294404 -6.57123709 0.15294500 -0.361479 -0.760240 0.539786
-1.35832000 -6.49606323 0.34903300 0.000000 0.000000 0.000000
-1.31939399 -6.56494713 0.26081899 -0.499271 -0.859777 -0.107293
-1.32000303 -6.56456804 0.24468900 -0.195181 -0.978330 -0.069101
-1.36442494 -6.52823305 0.27094501 -0.659573 -0.744774 -0.101360
-1.36691105 -6.56318092 0.13632500 0.000000 0.000000 0.000000
-1.38012600 -6.50498199 0.25307500 0.000000 0.000000 0.000000
-1.35247803 -6.54444504 0.24062100 0.000000 0.000000 0.000000
-1.31634998 -6.56615877 0.25842601 -0.177013 -0.971664 -0.156638
-1.31567800 -6.56321192 0.23846500 -0.287502 -0.956230 -0.054461
-1.26557004 -6.53975201 0.31491899 0.371132 -0.928473 0.014126
-1.26541603 -6.54220676 0.31893501 0.212315 -0.977116 0.012903
-1.26745200 -6.54102993 0.31744900 0.125784 -0.992052 0.003281
-1.30429697 -6.56180096 0.21547399 0.115666 -0.976318 -0.182826
-1.31250703 -6.56223106 0.21763000 0.011386 -0.937459 -0.347910
-1.28725803 -6.55871201 0.24149100 0.306922 -0.949256 -0.068637
-1.31593204 -6.56868601 0.16011199 0.226627 -0.970362 0.083889
-1.30704606 -6.57259178 0.23485400 0.987585 0.083574 -0.133012
-1.30492496 -6.56886816 0.23836100 -0.025732 -0.964331 0.263445
-1.33213997 -6.55143881 0.26547101 -0.580941 -0.513585 0.631457
-1.33552206 -6.55069494 0.26050299 -0.683833 -0.719589 0.120676
-1.31430304 -6.56470013 0.24173699 -0.348426 -0.936476 0.040153
-1.32753694 -6.53786612 0.30252200 0.000000 0.000000 0.000000
-1.31186700 -6.56807518 0.22745000 -0.672846 -0.582688 -0.455799
-1.27806997 -6.54593086 0.28774199 0.440818 -0.852452 0.281079
-1.27725101 -6.54484606 0.29070100 0.447361 -0.893371 0.041898
-1.22562206 -6.46175480 0.23538400 0.983163 0.172380 -0.060630
-1.33326197 -6.52926207 0.32922900 0.000000 0.000000 0.000000
-1.32429504 -6.53081989 0.33523899 0.000000 0.000000 0.000000
-1.33559203 -6.53406477 0.30851901 0.000000 0.000000 0.000000
-1.33186305 -6.39176989 0.26720399 -0.442428 0.889097 0.117321
-1.33754694 -6.39519310 0.26539201 -0.673708 0.738407 -0.029536
-1.33479404 -6.39425802 0.27090499 -0.461533 0.878770 0.121456
-1.38141704 -6.44139814 0.28258500 -0.706629 0.553664 0.440604
-1.22327006 -6.47795582 0.25571701 0.989656 -0.126167 -0.068292
-1.22332001 -6.45444489 0.26419899 0.965065 0.237101 -0.111502
-1.36550796 -6.48571587 0.33991599 0.000000 0.000000 0.000000
-1.35811603 -6.51844215 0.31612399 -0.709868 -0.704333 -0.001384
-1.37012196 -6.51417589 0.27396199 -0.924519 -0.187727 0.331698
-1.36717606 -6.51851988 0.27709401 -0.824298 -0.346490 0.447747
-1.36844003 -6.51990700 0.26380801 -0.878976 -0.472017 -0.067827
-1.35319197 -6.52013397 0.32504901 0.000000 0.000000 0.000000
-1.34053898 -6.53340483 0.31100100 -0.409961 -0.900780 0.143274
-1.34782195 -6.54651594 0.24883100 -0.550231 -0.661287 0.509847
-1.36789203 -6.53112793 0.23482700 -0.716296 -0.530159 0.453709
-1.38856995 -6.45341015 0.20717400 -0.974993 0.113604 0.191004
-1.37997997 -6.46005821 0.34703800 -0.825711 -0.533930 0.181987
-1.38191605 -6.46707678 0.26901799 0.000000 0.000000 0.000000
-1.37819195 -6.46736908 0.29806799 0.000000 0.000000 0.000000
-1.37292802 -6.46434307 0.34390801 -0.556602 -0.768336 0.315996
-1.37196100 -6.46069813 0.35342199 -0.415981 -0.481233 0.771605
-1.32408905 -6.39970493 0.18175700 -0.231073 0.972878 0.010665
-1.32762301 -6.40077209 0.18163900 -0.222620 0.972885 -0.062727
-1.33013701 -6.39911509 0.18879899 -0.321143 0.936097 -0.143489
-1.37144697 -6.46900988 0.33927101 0.000000 0.000000 0.000000
-1.38088906 -6.44996309 0.29640299 -0.915946 0.318778 0.243771
-1.36910796 -6.46550179 0.35012400 -0.707150 -0.629477 0.322020
-1.32551503 -6.38568401 0.30861899 0.000000 0.000000 0.000000
-1.36602604 -6.41668892 0.36161599 -0.986896 0.156191 -0.040494
-1.38601005 -6.45137405 0.21511699 -0.917427 0.312530 0.246279
-1.37776697 -6.43494701 0.20009901 -0.723133 0.688902 0.049920
-1.39044595 -6.46169376 0.20424400 0.000000 0.000000 0.000000
-1.38468504 -6.44637203 0.23696201 -0.975327 0.220763 -0.001168
-1.35023904 -6.40184307 0.28587601 0.000000 0.000000 0.000000
-1.38487899 -6.45158720 0.24837600 -0.937295 0.290214 -0.193013
-1.38216603 -6.45172501 0.26807699 -0.913951 0.399430 0.071762
-1.38461304 -6.45255089 0.24216500 -0.972891 0.206598 0.103925
-1.37501395 -6.48368692 0.30526799 0.000000 0.000000 0.000000
-1.37857199 -6.46389103 0.31329301 0.000000 0.000000 0.000000
-1.38283896 -6.46050119 0.28454500 -0.850665 -0.459695 0.255047
-1.38334405 -6.44788313 0.25732300 -0.785685 0.488835 0.379129
-1.40785801 -6.51698017 0.15062200 -0.897482 -0.240213 0.369898
-1.40009201 -6.48955011 0.16538300 0.000000 0.000000 0.000000
-1.38607800 -6.49824619 0.22783600 0.000000 0.000000 0.000000
-1.38952100 -6.48549414 0.23637500 0.000000 0.000000 0.000000
-1.37905705 -6.46142101 0.29188100 -0.947818 -0.211384 0.238659
-1.38169706 -6.46671820 0.27748701 0.000000 0.000000 0.000000
-1.36759496 -6.50844002 0.29061201 0.000000 0.000000 0.000000
-1.36464000 -6.52606201 0.26186299 -0.775767 -0.601334 0.191264
-1.36070204 -6.52946281 0.26301900 -0.558679 -0.829052 0.023451
-1.36681998 -6.52228785 0.25876999 -0.867486 -0.495115 0.048270
-1.38745701 -6.49229002 0.24201000 0.000000 0.000000 0.000000
-1.36701298 -6.52387810 0.27061701 -0.928777 -0.362156 0.078846
-1.37921000 -6.51239777 0.24155700 0.000000 0.000000 0.000000
-1.36859703 -6.52300787 0.27348500 -0.811497 -0.398546 0.427356
-1.36558104 -6.52655220 0.27244899 -0.632710 -0.416825 -0.652638
-1.36915100 -6.51896715 0.27078101 -0.948505 -0.306601 0.079586
-1.37480199 -6.53066206 0.20919900 0.000000 0.000000 0.000000
-1.37648594 -6.52976084 0.21887399 -0.531637 -0.514867 0.672513
-1.29276800 -6.55922079 0.27426401 0.677595 -0.651471 -0.341247
-1.26314700 -6.55089808 0.23366299 0.364698 -0.896241 -0.252483
-1.28924406 -6.55678892 0.25642601 0.301642 -0.940412 0.156963
-1.29496205 -6.55799294 0.25633299 0.250735 -0.950082 0.185679
-1.27622104 -6.54450703 0.29512301 0.485539 -0.861722 -0.147266
-1.27228105 -6.54330301 0.29565600 0.438085 -0.896642 -0.064143
-1.29790401 -6.56065178 0.21897200 0.154478 -0.987513 -0.030896
-1.28616703 -6.55893421 0.21924700 0.351259 -0.866643 0.354327
-1.31609595 -6.56356192 0.25014400 -0.052558 -0.998605 0.005153
-1.33437502 -6.57381201 0.14811100 0.011844 -0.898794 0.438211
-1.32881296 -6.55594492 0.26400900 -0.567146 -0.580690 0.584076
-1.30112505 -6.56794214 0.24047600 0.246405 -0.895616 0.370345
-1.33296597 -6.59507179 0.01807800 0.280783 -0.939169 0.197793
-1.26037002 -6.55180597 0.24314199 0.281911 -0.923009 0.261877
-1.26479197 -6.55329084 0.24371000 0.232421 -0.939427 0.251906
-1.31988895 -6.56269979 0.25873700 -0.459349 -0.887715 -0.030982
-1.27741897 -6.55459309 0.21144800 0.517634 -0.855516 0.012164
-1.25005496 -6.53172588 0.20999600 0.753421 -0.646427 -0.120369
-1.27274096 -6.54567814 0.27709299 0.709868 -0.704333 0.001384
-1.30323803 -6.56749821 0.23506500 0.246373 -0.966731 0.068784
-1.30711401 -6.57239723 0.22992200 0.904438 -0.089480 -0.417115
-1.30568802 -6.56802082 0.22944500 0.801522 -0.498760 -0.329851
-1.29780197 -6.56055498 0.26681900 0.514253 -0.828604 -0.221266
-1.29982603 -6.55877686 0.26070499 0.384545 -0.909570 -0.157507
-1.28399301 -6.54931402 0.29069200 0.654944 -0.754393 -0.044042
-1.27856600 -6.55490398 0.21888000 0.569213 -0.809977 0.141189
-1.28017497 -6.55678797 0.21530300 0.653288 -0.752227 0.085844
-1.29725599 -6.56156397 0.24547800 0.476509 -0.789875 0.386053
-1.28759599 -6.55501223 0.25997600 0.324758 -0.932816 0.156160
-1.28376198 -6.55222988 0.26253700 0.453716 -0.889719 0.050413
-1.24889302 -6.53711081 0.23833600 0.746739 -0.654696 -0.117281
-1.26716602 -6.55024099 0.22110400 0.556034 -0.790978 -0.255306
-1.26912105 -6.54803085 0.25510901 0.351032 -0.796635 0.492086
-1.27399802 -6.54952192 0.25791699 0.000000 0.000000 0.000000
-1.25128102 -6.52570820 0.33033499 0.694435 -0.691342 0.199515
-1.27904499 -6.54932785 0.26672700 0.434311 -0.870124 -0.232935
-1.23569405 -6.51436520 0.25949901 0.911050 -0.405967 -0.071961
-1.27371395 -6.54676390 0.27437600 0.649765 -0.758297 -0.052838
-1.27455401 -6.54820919 0.27351099 0.614981 -0.774364 -0.148858
-1.25255799 -6.53070688 0.30685699 0.771307 -0.626779 0.110608
-1.25437105 -6.53355503 0.30440399 0.740920 -0.669264 0.055891
-1.28155100 -6.54751921 0.28652799 0.498072 -0.765887 0.406622
-1.27745295 -6.54750299 0.28514501 0.453431 -0.740329 0.496300
-1.24543202 -6.52963400 0.24516600 0.906497 -0.400545 0.133515
-1.26197898 -6.54022312 0.30341899 0.453556 -0.873352 -0.177606
-1.24699199 -6.52551079 0.30560899 0.634031 -0.769792 0.073657
-1.24954498 -6.53402615 0.22526200 0.816697 -0.565406 -0.115419
-1.27566004 -6.54994297 0.28283399 0.580392 -0.667367 0.466655
-1.26820505 -6.54234600 0.30297101 0.220278 -0.975175 0.022623
-1.26481998 -6.53513622 0.32839799 0.476675 -0.677380 0.560302
-1.28012395 -6.55340385 0.28344300 0.483598 -0.691093 0.537145
-1.28310096 -6.54989815 0.28599101 0.498511 -0.676431 0.542152
-1.30128300 -6.55189896 0.29652300 -0.061197 -0.898919 0.433820
-1.27115905 -6.54480600 0.30037701 0.451917 -0.891836 -0.019996
-1.28697801 -6.54841805 0.30292699 -0.103103 -0.814661 0.570698
-1.27384400 -6.53661680 0.33026499 0.274845 -0.903901 0.327756
-1.27544403 -6.53559494 0.33384499 0.322947 -0.946043 -0.026596
-1.27731001 -6.54622316 0.29484901 0.507933 -0.845568 -0.164375
-1.26732302 -6.53337479 0.33377400 0.363693 -0.887531 0.282872
-1.26198399 -6.53131580 0.33176100 0.456050 -0.808089 0.372841
-1.29666805 -6.54226112 0.32359999 -0.022490 -0.976521 0.214243
-1.23885095 -6.52002478 0.23387900 0.900696 -0.432172 -0.044429
-1.23891497 -6.51719904 0.22209300 0.917162 -0.398259 0.014270
-1.29956102 -6.54661322 0.30673999 0.113146 -0.863635 0.491255
-1.32029104 -6.56501579 0.26530299 -0.765701 -0.637842 -0.082818
-1.32008898 -6.56553078 0.26999301 -0.841347 -0.332480 0.426137
-1.31672299 -6.54129601 0.30987501 -0.537319 -0.681274 0.497146
-1.27132404 -6.53718805 0.34154600 0.363990 -0.901936 -0.232428
-1.29914999 -6.53460884 0.34802899 0.000000 0.000000 0.000000
-1.27719200 -6.54007483 0.32569000 0.230401 -0.884443 0.405803
-1.27421200 -6.53046799 0.37786299 0.044906 -0.995608 0.082146
-1.27227199 -6.52951193 0.37969899 0.186927 -0.976722 0.105224
-1.23525906 -6.51105881 0.36223599 0.728106 -0.681785 -0.070929
-1.29729402 -6.52158785 0.41087601 0.000000 0.000000 0.000000
-1.26609099 -6.53195095 0.34905100 0.444660 -0.837833 0.316723
-1.31008506 -6.52479410 0.39408201 -0.307954 -0.878351 0.365600
-1.25431502 -6.51955700 0.40207401 0.000000 0.000000 0.000000
-1.29674196 -6.52395296 0.40115699 -0.045262 -0.970077 0.238543
-1.27272296 -6.53521585 0.33499101 0.345397 -0.915805 -0.204945
-1.31030798 -6.52814484 0.37937000 -0.295777 -0.941851 0.159474
-1.27532399 -6.53211403 0.35617599 0.189737 -0.971607 0.141348
-1.25964200 -6.54005003 0.30808899 0.596691 -0.777692 0.197874
-1.25923598 -6.53638601 0.30970901 0.600167 -0.765408 0.232272
-1.24704397 -6.52165318 0.33205900 0.432347 -0.872173 0.228889
-1.27052402 -6.54024696 0.31198800 0.129363 -0.990258 0.051516
-1.26444602 -6.53707218 0.32664999 0.463938 -0.624726 0.628076
-1.30449104 -6.54864979 0.30301499 -0.077338 -0.913133 0.400259
-1.30218196 -6.53779697 0.33557099 0.000000 0.000000 0.000000
-1.27287698 -6.53576708 0.33777300 0.345892 -0.914246 -0.210980
-1.26967204 -6.53393888 0.33619800 0.448216 -0.877453 -0.170819
-1.22139096 -6.49149418 0.30257899 0.812271 -0.534835 0.232738
-1.27403104 -6.54138422 0.30968300 0.209870 -0.951863 0.223410
-1.27799702 -6.54248619 0.31154799 0.200757 -0.940098 0.275522
-1.29644203 -6.52919579 0.38075399 -0.042270 -0.999016 0.013403
-1.23992300 -6.51981497 0.28314900 0.626916 -0.740044 0.243539
-1.30780900 -6.56484604 0.22270399 0.112652 -0.871270 -0.477701
-1.32009196 -6.56442690 0.25016400 -0.187273 -0.974071 0.126943
-1.30947006 -6.56881714 0.22665600 0.268645 -0.420422 -0.866646
-1.30816603 -6.57438707 0.22857200 0.891237 -0.022715 -0.452968
-1.29232502 -6.55977392 0.22045401 0.083658 -0.980864 0.175804
-1.30376804 -6.56293821 0.22136900 0.337580 -0.907519 -0.249897
-1.29635894 -6.56304884 0.24136800 0.600400 -0.781882 0.167870
-1.30589700 -6.56125307 0.24944700 0.201515 -0.969068 0.142472
-1.31119001 -6.56487799 0.23547800 -0.479438 -0.868171 0.128138
-1.31252503 -6.56326723 0.23772299 -0.592530 -0.799260 0.100453
-1.31083500 -6.56447411 0.23724601 -0.479767 -0.876628 0.036696
-1.29987895 -6.56686211 0.23756300 0.516165 -0.853712 -0.068916
-1.29025602 -6.55932713 0.22966100 0.401697 -0.915765 0.003875
-1.28839803 -6.55548620 0.27444801 0.362311 -0.869853 -0.334794
-1.28226697 -6.55751705 0.20839600 0.611548 -0.772402 -0.171476
-1.28283298 -6.55741215 0.21943200 0.459235 -0.835963 0.300449
-1.26452899 -6.54925108 0.25149199 0.324359 -0.811690 0.485748
-1.27974606 -6.55040598 0.27036101 0.510097 -0.824476 -0.245031
-1.24448597 -6.52617788 0.25087500 0.822215 -0.568802 0.020659
-1.25649297 -6.55169678 0.24245700 0.292924 -0.954856 -0.049455
-1.25461698 -6.55070019 0.24109200 0.777537 -0.505965 -0.373412
-1.23282099 -6.50481176 0.22685100 0.947653 -0.304461 -0.096215
-1.27124298 -6.53122711 0.36293700 0.118422 -0.988411 0.094972
-1.24033296 -6.51617718 0.38314599 0.673541 -0.707763 0.213107
-1.23994005 -6.51635981 0.38040200 0.694720 -0.717545 0.049929
-1.24164605 -6.51766682 0.34958801 0.535537 -0.843918 0.031664
-1.25448799 -6.53390598 0.30788600 0.741946 -0.667031 0.067712
-1.25251901 -6.53145313 0.31137100 0.661530 -0.749918 -0.001381
-1.26725101 -6.53215313 0.33617300 0.480913 -0.875997 0.036784
-1.27182603 -6.53750181 0.34302101 0.423034 -0.885591 -0.191756
-1.25089598 -6.53185081 0.28173500 0.747516 -0.652025 0.126824
-1.26127195 -6.53950500 0.32133299 0.677246 -0.719668 0.153024
-1.27106094 -6.54098988 0.31585899 0.109713 -0.993934 0.007604
-1.25169206 -6.52658606 0.34016001 0.526607 -0.777832 0.343019
-1.25824594 -6.52749920 0.37100399 0.442367 -0.894320 0.067108
-1.25051999 -6.52494287 0.38212699 0.359860 -0.928626 0.090302
-1.23712802 -6.51589918 0.31624100 0.802128 -0.591876 0.079205
-1.23914003 -6.51685905 0.32595199 0.817921 -0.572967 -0.052088
-1.24093902 -6.51826906 0.32260400 0.645840 -0.757141 -0.098121
-1.24030495 -6.51664591 0.32235199 0.847483 -0.527042 -0.063245
-1.23924899 -6.52105999 0.32563701 0.598207 -0.794197 -0.106770
-1.24441195 -6.51971722 0.33338401 0.172262 -0.948117 0.267209
-1.24291098 -6.52070284 0.32884699 0.412483 -0.900092 0.140329
-1.23879600 -6.51886988 0.32869700 0.791083 -0.607311 0.073222
-1.23948896 -6.51715708 0.33142400 0.628073 -0.667846 0.399382
-1.24849606 -6.52152205 0.36341700 0.493019 -0.867323 -0.068436
-1.22631204 -6.49651289 0.27252799 0.915375 -0.402348 0.014323
-1.23725605 -6.51625299 0.23728999 0.880767 -0.473228 0.017428
-1.23691702 -6.51779318 0.26536599 0.803324 -0.591395 0.070166
-1.19682503 -6.49172020 0.36401200 0.425904 0.885470 0.185875
-1.24138999 -6.52296782 0.26104200 0.738228 -0.674516 -0.006925
-1.24219799 -6.52424288 0.25707701 0.787262 -0.615445 -0.038025
-1.23819900 -6.51782894 0.25911000 0.832811 -0.542127 -0.111914
-1.24112201 -6.52283716 0.23255400 0.889271 -0.457226 -0.011928
-1.24626303 -6.52579498 0.30153900 0.667871 -0.743797 0.026715
-1.25779200 -6.53845692 0.27503300 0.564238 -0.822906 -0.066799
-1.28674400 -6.55374622 0.26597801 0.460352 -0.887728 0.003957
-1.24468601 -6.52459192 0.27950299 0.647124 -0.739350 0.185990
-1.23776996 -6.51593924 0.26961100 0.805227 -0.537337 0.250757
-1.24137700 -6.52576399 0.22219700 0.929867 -0.348188 -0.118794
-1.25337601 -6.53469610 0.26423699 0.621420 -0.780019 0.073532
-1.25710499 -6.53457403 0.29049200 0.633471 -0.772352 0.046766
-1.25611496 -6.53514624 0.28591400 0.500606 -0.826077 0.258827
-1.27022505 -6.53855610 0.32538700 0.092494 -0.858056 0.505158
-1.25329804 -6.53412580 0.27017200 0.688421 -0.722914 0.058925
-1.25462198 -6.53579521 0.25918499 0.598391 -0.794441 0.103877
-1.25510895 -6.53708506 0.28137499 0.637599 -0.767134 0.070524
-1.25240195 -6.54034424 0.24087100 0.841995 -0.522769 0.133255
-1.25631702 -6.54137421 0.25003800 0.754817 -0.471966 0.455521
-1.26734698 -6.54082680 0.29306999 0.492760 -0.869496 0.034125
-1.26359200 -6.53905296 0.30118299 0.395496 -0.854582 -0.336560
-1.25750506 -6.53522491 0.29954901 0.602764 -0.774544 -0.191719
-1.26882803 -6.55276012 0.24736500 0.253271 -0.893112 0.371760
-1.24401700 -6.52861214 0.23669200 0.883592 -0.466829 -0.036534
-1.21546197 -6.47182417 0.33960000 0.966512 -0.210899 -0.146206
-1.22239697 -6.49205112 0.29278600 0.880346 -0.466065 -0.088175
-1.23978603 -6.52155399 0.23801699 0.873654 -0.467772 0.133855
-1.21354604 -6.48977613 0.35005200 0.008830 -0.939720 -0.341831
-1.24615204 -6.52049398 0.35701099 0.572567 -0.819719 0.015104
-1.22009397 -6.43481302 0.30513901 0.961109 0.234705 -0.145543
-1.24873495 -6.52981901 0.27385601 0.714983 -0.697926 0.041222
-1.23811495 -6.51450777 0.35204899 0.711146 -0.702730 -0.021040
-1.23687601 -6.51322889 0.21279700 0.888423 -0.433412 -0.151190
-1.22403502 -6.49394894 0.26974899 0.944338 -0.324253 -0.055549
-1.22518301 -6.49254322 0.26722801 0.930608 -0.350841 -0.104304
-1.22470796 -6.49115515 0.27066600 0.966898 -0.240779 0.084462
-1.23667598 -6.50958014 0.19968501 0.886935 -0.459135 -0.050410
-1.22771299 -6.49388313 0.25050101 0.923722 -0.354209 -0.145851
-1.22616506 -6.49065590 0.24858201 0.944664 -0.269318 -0.187292
-1.23438895 -6.51006508 0.35661399 0.750295 -0.658481 -0.058819
-1.22701299 -6.50210905 0.36181599 0.790594 -0.588033 -0.170817
-1.23807204 -6.51538801 0.35560000 0.679817 -0.733081 0.021025
-1.22176099 -6.49340391 0.35271001 0.741502 -0.625003 -0.244019
-1.22824001 -6.44125986 0.25251299 0.911637 0.387901 -0.135835
-1.22570002 -6.44494200 0.25188300 0.934674 0.328842 -0.135084
-1.21819699 -6.49516106 0.36506900 0.440346 -0.897781 -0.009201
-1.22490299 -6.49836111 0.29336500 0.886741 -0.460345 -0.042096
-1.22543001 -6.49815178 0.30045199 0.881887 -0.466555 0.067837
-1.20951402 -6.43448210 0.35223100 0.940095 0.157367 -0.302418
-1.21156704 -6.43027687 0.35505599 0.892629 0.395580 -0.216172
-1.22672796 -6.50489521 0.37786800 0.716748 -0.697264 -0.009742
-1.20731497 -6.45092392 0.36908701 0.996784 0.061824 0.050978
-1.22605097 -6.49754000 0.34807399 0.860847 -0.494590 -0.119682
-1.22055197 -6.49422407 0.35515201 0.439325 -0.813150 -0.381813
-1.22550797 -6.49447107 0.41057801 0.755498 -0.630345 0.178572
-1.20073998 -6.48801613 0.36508501 0.378753 0.894565 -0.237274
-1.19965994 -6.48796177 0.36528599 0.511823 0.853039 0.101791
-1.20019805 -6.48619413 0.36665699 0.732505 0.599910 0.321785
-1.22312498 -6.48892021 0.31335500 0.921134 -0.383694 0.065509
-1.22467601 -6.47702122 0.24613599 0.981592 -0.185899 0.043810
-1.22497201 -6.49464703 0.28820899 0.862990 -0.501674 -0.059756
-1.21828794 -6.48131418 0.34004501 0.676116 -0.206720 -0.707202
-1.21548605 -6.48213577 0.34211299 0.517093 0.231695 -0.823973
-1.21756494 -6.48426390 0.34216100 0.437964 -0.027955 -0.898558
-1.22445703 -6.49599981 0.26804501 0.931403 -0.354120 -0.084187
-1.22006702 -6.48411703 0.31823701 0.920814 -0.376261 -0.102617
-1.22115505 -6.45105982 0.27759400 0.954596 0.147372 -0.258896
-1.21647501 -6.46008205 0.29295501 0.994763 0.091637 -0.045267
-1.22861695 -6.50019598 0.26372200 0.882240 -0.453274 -0.127260
-1.23275602 -6.50759697 0.26534399 0.900351 -0.435148 -0.003920
-1.23199797 -6.50704098 0.26288101 0.887154 -0.461426 -0.006611
-1.22450900 -6.48319006 0.25685599 0.995313 0.011862 -0.095973
-1.24784005 -6.52230215 0.32542199 0.509023 -0.839363 0.190696
-1.24455500 -6.52080202 0.32601100 0.422597 -0.906309 0.003901
-1.22585201 -6.48695421 0.24815699 0.966256 -0.167312 -0.195845
-1.20895898 -6.46035099 0.39602101 0.965108 -0.241597 -0.100985
-1.22623003 -6.49471712 0.33587000 0.886083 -0.463510 0.003962
-1.22202802 -6.48939705 0.33786201 0.819284 -0.562254 -0.112451
-1.22809803 -6.49258089 0.22601600 0.962396 -0.271320 -0.013384
-1.21619105 -6.46660709 0.31799600 0.997034 -0.061439 -0.046349
-1.22410297 -6.49719620 0.35791099 0.726400 -0.672258 -0.142874
-1.22414100 -6.49435282 0.28264499 0.890596 -0.415417 -0.185116
-1.22931802 -6.50652599 0.30425501 0.781690 -0.595791 0.184375
-1.24434197 -6.52171898 0.38227400 0.624017 -0.737762 0.257506
-1.23199403 -6.51038599 0.29249099 0.745743 -0.649324 -0.149149
-1.22925794 -6.49668884 0.21950001 0.936758 -0.340519 -0.080823
-1.22970903 -6.49736214 0.21354300 0.937232 -0.332132 -0.106229
-1.22767103 -6.49728680 0.26462501 0.896781 -0.416209 -0.150179
-1.23368800 -6.51084805 0.30064899 0.630558 -0.764719 0.132671
-1.22575998 -6.46624804 0.23213500 0.990935 0.133970 -0.009965
-1.24064898 -6.52158689 0.27792901 0.692665 -0.720765 0.026695
-1.23966599 -6.51962423 0.26797500 0.763469 -0.619649 0.182070
-1.22659194 -6.49771309 0.28167999 0.878960 -0.456024 -0.139540
-1.22762501 -6.50254822 0.28345501 0.855063 -0.508455 -0.101691
-1.24168599 -6.52338696 0.26620400 0.742364 -0.651647 0.155730
-1.22152603 -6.48558187 0.26558200 0.991323 -0.131221 0.007719
-1.22893500 -6.49982119 0.26791799 0.854811 -0.508304 -0.104525
-1.23265505 -6.50454378 0.24769200 0.900611 -0.418791 -0.116253
-1.24619699 -6.51581383 0.39645401 0.464987 -0.866499 0.181566
-1.22863805 -6.49535418 0.23064600 0.964225 -0.264950 0.008469
-1.23645103 -6.51438522 0.23282699 0.835428 -0.547156 -0.051777
-1.23037100 -6.49896288 0.22649799 0.918995 -0.391203 -0.049066
-1.24454999 -6.52841616 0.23275401 0.802352 -0.578231 -0.147920
-1.22723103 -6.48854208 0.23684099 0.955525 -0.231197 -0.183087
-1.23343396 -6.50915718 0.27856699 0.849266 -0.527922 0.006751
-1.22580802 -6.49637985 0.32703701 0.923716 -0.378790 0.057151
-1.23995996 -6.51815081 0.30940199 0.795806 -0.605475 0.009654
-1.22209203 -6.48849678 0.32990900 0.869727 -0.491704 -0.042459
-1.24168396 -6.52006817 0.31415501 0.748304 -0.653470 0.114098
-1.23969495 -6.51694393 0.37571800 0.656924 -0.752991 0.038144
-1.25431895 -6.52069616 0.39578399 0.454185 -0.835014 0.310594
-1.27234900 -6.54317999 0.29136199 0.437155 -0.895127 0.087431
-1.23535204 -6.51332903 0.37808499 0.723512 -0.689795 0.026693
-1.22655296 -6.50004005 0.35051799 0.853223 -0.518078 -0.060047
-1.24226201 -6.51729679 0.35844001 0.572520 -0.818885 0.040594
-1.25279605 -6.52514219 0.34409499 0.527515 -0.843737 0.099179
-1.24180603 -6.51447582 0.39047399 0.576880 -0.789172 0.210754
-1.23310697 -6.50985193 0.37151700 0.730340 -0.682310 0.032491
-1.24298298 -6.51811504 0.36211699 0.552657 -0.829699 -0.078543
-1.22892594 -6.50239992 0.40478799 0.652721 -0.757597 0.001380
-1.24862003 -6.51647902 0.40859801 0.540637 -0.826593 0.156383
-1.24705100 -6.51423216 0.41207600 0.540637 -0.826593 0.156383
-1.23705900 -6.50879812 0.40204400 0.693627 -0.719159 0.041135
-1.24471700 -6.51366282 0.40735400 0.504557 -0.862806 0.031449
-1.25426602 -6.52576494 0.38221899 0.301421 -0.950833 0.071151
-1.25490797 -6.52477884 0.38837099 0.365041 -0.864085 0.346558
-1.22575402 -6.49858189 0.38940799 0.854304 -0.518635 0.034392
-1.22285998 -6.49489594 0.39944199 0.839462 -0.537312 -0.081238
-1.23272097 -6.50848484 0.37353101 0.708442 -0.705658 -0.012526
-1.23253202 -6.50488806 0.41039500 0.675735 -0.737038 0.012539
-1.21937704 -6.49251699 0.37903300 0.662823 -0.578922 0.474884
-1.21431994 -6.49203014 0.37632099 0.590108 -0.647269 0.482510
-1.22366095 -6.49943018 0.37995300 0.836800 -0.464199 0.290318
-1.22424400 -6.50119400 0.37707701 0.774804 -0.631374 -0.032342
-1.21851099 -6.48726892 0.41191399 0.931632 -0.363222 0.011470
-1.21090496 -6.46910095 0.40806800 0.930235 -0.347306 -0.118493
-1.21194196 -6.46812820 0.40381899 0.930235 -0.347306 -0.118493
-1.23219204 -6.41595888 0.28721201 0.891119 0.440632 -0.108398
-1.20819795 -6.45795918 0.38534600 0.991141 -0.132811 0.001098
-1.21953595 -6.48455191 0.34053701 0.573444 -0.334375 -0.747901
-1.19780600 -6.48689795 0.36565700 0.557725 0.771866 0.305231
-1.20687103 -6.49083519 0.36513999 0.483475 -0.855379 0.185952
-1.20032704 -6.48472500 0.36351401 0.740797 0.668875 -0.061853
-1.19905400 -6.48608398 0.36156899 0.571792 0.814985 -0.094092
-1.21573806 -6.45337915 0.31672800 0.994468 -0.025218 -0.101969
-1.20371902 -6.47253799 0.36948100 0.987944 0.076176 0.134773
-1.20779800 -6.46733189 0.37518400 0.936264 0.064344 0.345354
-1.19414496 -6.49160004 0.36183101 0.406157 0.887637 0.217109
-1.19720900 -6.49007082 0.36176300 0.335737 0.929839 -0.150598
-1.19734800 -6.48809099 0.36094499 0.436669 0.886308 -0.154203
-1.20392799 -6.48957014 0.36694399 0.269331 -0.655001 0.705999
-1.20621395 -6.46805906 0.37108099 0.965641 0.181139 0.186352
-1.20739698 -6.45866823 0.37324101 0.977876 0.056671 0.201363
-1.20736802 -6.45520496 0.37410000 0.984712 0.082159 0.153601
-1.20290101 -6.44508982 0.39532700 0.936240 0.050784 -0.347672
-1.21000504 -6.46592522 0.40848100 0.945744 -0.304607 -0.113064
-1.20886600 -6.46208811 0.40635800 0.959701 -0.271469 -0.072647
-1.20586705 -6.44308090 0.40764701 0.950312 -0.204703 0.234528
-1.20937598 -6.44092083 0.35652700 0.998778 -0.009296 -0.048545
-1.20966399 -6.44466400 0.35269800 0.975284 -0.080143 -0.205907
-1.20861602 -6.45954514 0.37923199 0.977171 -0.020087 0.211504
-1.21756899 -6.48635483 0.41285500 0.912300 -0.392970 0.115253
-1.33417106 -6.38011694 0.39659700 -0.672851 0.738287 -0.046943
-1.20771599 -6.45454216 0.39845300 0.966475 -0.250015 0.058461
-1.22227299 -6.49288988 0.38428399 0.864118 -0.440382 0.243648
-1.21346998 -6.49336100 0.36790100 0.494145 -0.859320 0.131869
-1.20566297 -6.47466707 0.37492701 0.856290 -0.062860 0.512656
-1.35687006 -6.40126991 0.35456300 -0.463819 0.839218 -0.283876
-1.35967898 -6.40212917 0.36178201 -0.580051 0.804396 0.128408
-1.21666002 -6.44605684 0.31012800 0.949791 0.265402 -0.165708
-1.22073400 -6.44862795 0.28097901 0.935500 0.207734 -0.285808
-1.21705401 -6.48460007 0.38748601 0.739085 -0.579898 0.342741
-1.20790398 -6.45607519 0.40398699 0.994173 -0.096640 0.047765
-1.20640194 -6.48372316 0.34964201 0.779549 0.514857 -0.356688
-1.20419896 -6.48715019 0.36881700 0.575722 0.012366 0.817552
-1.22526300 -6.49787378 0.39872599 0.799527 -0.598584 -0.049528
-1.20245600 -6.48319387 0.36484000 0.918838 0.393036 -0.035492
-1.22475600 -6.44648409 0.26299801 0.978801 0.176061 -0.104652
-1.21081698 -6.47679186 0.35333499 0.720987 0.435907 -0.538668
-1.21298206 -6.47500420 0.35134301 0.857319 0.057155 -0.511603
-1.22129405 -6.41222906 0.33997199 0.000000 0.000000 0.000000
-1.22526705 -6.45300293 0.24728900 0.980155 0.076329 -0.182946
-1.22828102 -6.44515514 0.24275300 0.935919 0.253216 -0.244822
-1.21589005 -6.43103600 0.33235499 0.957826 0.224511 -0.179343
-1.22021902 -6.48092413 0.31249401 0.930622 -0.361982 0.053968
-1.34044397 -6.52367210 0.33265799 0.000000 0.000000 0.000000
-1.21785605 -6.48680019 0.34500101 0.426173 -0.711394 -0.558834
-1.20910704 -6.46582890 0.37804300 0.945990 -0.071567 0.316198
-1.21639895 -6.46460581 0.31073400 0.995347 -0.078261 -0.056216
-1.21681798 -6.47032022 0.31439900 0.982432 -0.163135 -0.090630
-1.23619294 -6.40707493 0.29694799 0.797589 0.576625 -0.177074
-1.23314798 -6.41107082 0.29840600 0.814215 0.546361 -0.196325
-1.21912301 -6.45133877 0.28316799 0.950937 0.171304 -0.257630
-1.22246897 -6.47225189 0.26175100 0.988176 -0.104824 -0.111891
-1.22343695 -6.43299818 0.29111499 0.921486 0.352044 -0.164100
-1.22621596 -6.46352386 0.21870200 0.989995 0.137216 -0.032886
-1.23017395 -6.44448900 0.22587000 0.935989 0.298130 0.187198
-1.22941697 -6.44413805 0.22949100 0.938282 0.345683 -0.011396
-1.23495805 -6.44824314 0.19852600 0.859601 0.247116 -0.447235
-1.22719097 -6.44856501 0.22044399 0.940892 0.214784 0.261898
-1.25304306 -6.43866014 0.13844100 0.851006 0.506516 -0.138672
-1.25479400 -6.43994999 0.12852100 0.000000 0.000000 0.000000
-1.22286499 -6.48522902 0.26329100 0.998173 -0.057728 -0.017843
-1.22617900 -6.48469591 0.21373899 0.972698 -0.169110 -0.158938
-1.22448695 -6.49161100 0.27390799 0.980428 -0.182546 -0.073744
-1.22371805 -6.48952103 0.27820301 0.916312 -0.313133 -0.249641
-1.22297502 -6.47468281 0.26448399 0.976338 -0.151652 -0.154159
-1.22333205 -6.47959614 0.26517501 0.993668 -0.007618 -0.112101
-1.22948003 -6.44348001 0.22245800 0.918860 0.306287 0.248768
-1.22354698 -6.48686695 0.26063201 0.990496 -0.091306 -0.102864
-1.22289002 -6.48763084 0.25819901 0.970640 -0.170086 -0.170086
-1.22365606 -6.48737288 0.26408100 0.991060 -0.129367 -0.032623
-1.22470200 -6.45500708 0.24511600 0.983663 0.065419 -0.167710
-1.22058201 -6.45965099 0.27581200 0.994849 0.061000 -0.080963
-1.22353494 -6.43492603 0.27785999 0.919052 0.289999 -0.266915
-1.22875905 -6.44579411 0.22374199 0.928658 0.262293 0.262293
-1.22550201 -6.44919491 0.24813300 0.952789 0.227753 -0.200800
-1.22471797 -6.47388506 0.24266200 0.991472 -0.124919 -0.037138
-1.22615504 -6.45880508 0.21008700 0.928866 0.029796 -0.369215
-1.22487605 -6.48501492 0.25349301 0.984821 -0.045669 -0.167455
-1.20947802 -6.42790079 0.36892301 0.984325 0.175731 -0.014931
-1.21358097 -6.45135021 0.32230401 0.986934 0.026303 -0.158962
-1.21403396 -6.45552492 0.33061501 0.998991 -0.040374 -0.019669
-1.21640396 -6.47989416 0.29566100 0.977596 -0.165210 -0.130429
-1.21812499 -6.45361519 0.28907400 0.987247 0.155155 -0.035628
-1.22104299 -6.48598003 0.32391900 0.915147 -0.401287 -0.038407
-1.21809304 -6.47880793 0.32807201 0.958257 -0.283604 -0.036231
-1.20927501 -6.48868704 0.34177399 0.626041 0.626041 -0.464915
-1.21035802 -6.48662901 0.34106201 -0.102272 -0.528643 -0.842660
-1.22078705 -6.48603296 0.28704599 0.978998 -0.194351 -0.061565
-1.22397995 -6.47500420 0.25071400 0.993522 -0.073302 -0.086835
-1.22446799 -6.46427202 0.24545400 0.965641 0.181139 -0.186352
-1.21568298 -6.47236395 0.29457799 0.994856 0.034003 -0.095427
-1.21789002 -6.48606110 0.29684600 0.921485 -0.386259 -0.040867
-1.21727300 -6.46948624 0.30529901 0.973381 -0.165817 0.158222
-1.21461594 -6.46721601 0.33581999 0.996742 -0.072353 -0.035637
-1.21686399 -6.46582985 0.29439801 0.994012 0.050203 -0.097058
-1.21721900 -6.46465302 0.29554299 0.994614 0.047679 -0.092032
-1.20773602 -6.48822212 0.34185100 0.625588 0.568256 -0.534532
-1.21739900 -6.45663023 0.30277199 0.977182 0.056911 -0.204639
-1.21625996 -6.45692301 0.30856201 0.996672 -0.044465 -0.068325
-1.21384704 -6.44901323 0.32115301 0.980967 0.131041 -0.143287
-1.22408497 -6.44401312 0.26638100 0.965575 0.242984 -0.092868
-1.20475805 -6.48729897 0.34902999 0.865631 0.336720 -0.370545
-1.20564699 -6.48942280 0.34740600 0.676043 -0.602958 -0.423565
-1.20483398 -6.43689919 0.40538800 0.993514 0.050404 -0.101928
-1.21478200 -6.47208881 0.34619701 0.944887 -0.116273 -0.306053
-1.20769501 -6.46736097 0.35848501 0.943146 0.026657 -0.331307
-1.21424997 -6.44788599 0.32735300 0.992588 0.064513 -0.102994
-1.21795404 -6.44807100 0.30363601 0.978672 0.046718 -0.200047
-1.22622395 -6.44292402 0.24941599 0.920210 0.344547 -0.185743
-1.21450400 -6.45899200 0.33337599 0.997829 -0.060314 -0.026454
-1.22566295 -6.44233513 0.26334801 0.954372 0.276991 -0.111584
-1.24889302 -6.41349506 0.21673700 0.752693 0.593562 -0.284846
-1.24744701 -6.40853024 0.22260600 0.846120 0.516993 -0.129612
-1.22626805 -6.44325590 0.25474900 0.939844 0.324868 -0.105615
-1.22496998 -6.43619204 0.27408299 0.910536 0.296691 -0.287922
-1.26196396 -6.39482117 0.25025901 0.782362 0.621660 -0.038061
-1.25138700 -6.40735483 0.23633100 0.917391 0.392013 0.068703
-1.21961999 -6.44747591 0.28541899 0.945712 0.245693 -0.212751
-1.21195102 -6.43340015 0.34737200 0.957036 0.169045 -0.235598
-1.22470999 -6.45834017 0.25188801 0.985441 0.108961 -0.130514
-1.22173297 -6.45950699 0.26452899 0.986620 0.078977 -0.142630
-1.22039199 -6.45829296 0.26842400 0.986706 0.054882 -0.152969
-1.22888696 -6.43937492 0.24674800 0.912233 0.357710 -0.199686
-1.22644699 -6.43779993 0.26740900 0.918854 0.335817 -0.207207
-1.26012802 -6.38258886 0.28559700 0.654638 0.755567 -0.023830
-1.25870705 -6.38515615 0.28667399 0.670768 0.741079 0.029531
-1.22639894 -6.37954712 0.34605601 -0.335714 0.803485 -0.491638
-1.22960401 -6.42518997 0.27651399 0.831989 0.469848 -0.295021
-1.25143194 -6.36412621 0.39665601 0.596525 0.773158 -0.215369
-1.25423801 -6.35972214 0.39960000 0.647260 0.725621 -0.233515
-1.22441602 -6.44215298 0.27271700 0.948635 0.208237 -0.238179
-1.22579098 -6.42493582 0.29142499 0.897911 0.433142 -0.078378
-1.21951795 -6.42728186 0.32033700 0.912764 0.391976 -0.114961
-1.26202595 -6.39129782 0.24734400 0.852238 0.492305 -0.176992
-1.24358296 -6.39922380 0.28350300 0.685432 0.691706 -0.227432
-1.27317905 -6.40202284 0.19513300 0.275341 0.797703 -0.536522
-1.25715494 -6.40219688 0.22626500 0.379122 0.908461 -0.175970
-1.23381901 -6.40619802 0.30799401 0.736865 0.643787 -0.206322
-1.25077498 -6.40905714 0.22982800 0.889009 0.440960 0.123355
-1.26142800 -6.39345217 0.26067400 0.547704 0.829547 -0.108960
-1.25339103 -6.40764713 0.21821100 0.664750 0.654902 -0.359458
-1.26292300 -6.38899183 0.26970100 0.459379 0.842968 -0.279958
-1.24377704 -6.41753817 0.22161800 0.775042 0.629454 -0.055666
-1.26620901 -6.38108587 0.28094599 0.515448 0.739413 -0.433108
-1.23916900 -6.42464876 0.22212200 0.858167 0.513284 0.009430
-1.23349297 -6.42267084 0.26394299 0.843628 0.480548 -0.239511
-1.24275398 -6.41023779 0.25810900 0.842362 0.493275 -0.217041
-1.27940500 -6.38370705 0.26886401 0.163997 0.923710 -0.346216
-1.28060198 -6.37903214 0.27361101 0.247566 0.831883 -0.496670
-1.26083398 -6.40084887 0.22316299 0.600359 0.797152 -0.064171
-1.24587095 -6.41199207 0.24262300 0.000000 0.000000 0.000000
-1.28143895 -6.38782310 0.25319299 0.039307 0.949710 -0.310653
-1.28676999 -6.38685417 0.25741199 0.114528 0.963835 -0.240637
-1.25876296 -6.40033913 0.23891900 0.602868 0.790623 -0.107079
-1.24415302 -6.41074800 0.25167900 0.000000 0.000000 0.000000
-1.22546697 -6.44305897 0.25836301 0.936985 0.333776 -0.103216
-1.24466801 -6.40429020 0.26754701 0.641287 0.621195 -0.450408
-1.23396897 -6.41643620 0.27798301 0.789259 0.503133 -0.352032
-1.25284803 -6.40474319 0.24103700 0.625129 0.780372 -0.015247
-1.23336101 -6.40862513 0.30387199 0.788046 0.591413 -0.170920
-1.25081396 -6.38797092 0.30650401 0.563250 0.811259 -0.156873
-1.27486801 -6.37797594 0.30238101 0.000000 0.000000 0.000000
-1.23713505 -6.40810585 0.28867900 0.833904 0.544970 -0.087252
-1.30788398 -6.38931894 0.22769500 -0.223678 0.969273 0.102361
-1.25765598 -6.40088415 0.23355800 0.385213 0.921046 -0.057315
-1.26412499 -6.39119816 0.24381500 0.499582 0.788730 -0.358221
-1.26278901 -6.39216185 0.24449199 0.744990 0.594390 -0.302803
-1.26345897 -6.38977385 0.24643800 0.506938 0.799341 -0.322597
-1.27102804 -6.37286282 0.32913801 0.546160 0.837627 -0.009534
-1.27596700 -6.37125778 0.32964501 0.289951 0.953068 0.087115
-1.22716999 -6.41445112 0.31428799 0.000000 0.000000 0.000000
-1.22818506 -6.40925694 0.32179201 0.837743 0.472295 -0.274086
-1.29898298 -6.37623978 0.28801599 -0.223822 0.955600 -0.191656
-1.23970103 -6.40342999 0.29301399 0.831715 0.547295 -0.093370
-1.22827494 -6.37800789 0.35131201 -0.062346 0.974317 -0.216379
-1.26155496 -6.39590216 0.24241599 0.759648 0.574134 -0.305458
-1.27982795 -6.38406086 0.26478299 0.165263 0.977910 -0.127986
-1.27276504 -6.38589716 0.26421201 0.353544 0.914633 -0.196095
-1.25818098 -6.38670588 0.28344500 0.696134 0.702174 -0.149495
-1.24117303 -6.40034723 0.28891101 0.798265 0.599762 -0.055297
-1.29977596 -6.36579323 0.37097099 -0.255649 0.930788 -0.261299
-1.29551005 -6.36526918 0.37156600 -0.132860 0.973038 -0.188534
-1.27686906 -6.37332821 0.28526500 0.031569 0.855122 -0.517465
-1.29256296 -6.37516785 0.28880399 -0.149154 0.979978 0.131896
-1.36819804 -6.41995096 0.29053199 -0.863203 0.504328 -0.023109
-1.25128496 -6.40551805 0.22820801 0.828066 0.559878 0.029031
-1.27429700 -6.38459587 0.27053100 0.280906 0.896224 -0.343329
-1.27106595 -6.38902283 0.26023701 0.432549 0.841675 -0.323241
-1.28879595 -6.37630606 0.30105501 -0.160024 0.986624 -0.031084
-1.24962294 -6.39353180 0.28353199 0.664375 0.730964 -0.155878
-1.33930695 -6.38420296 0.37414601 -0.650814 0.749107 0.123610
-1.28073299 -6.38533020 0.22473900 0.125020 0.872268 0.472778
-1.26662600 -6.37873983 0.28545099 0.491822 0.868655 0.059573
-1.27372706 -6.38171816 0.27525601 0.330305 0.817070 -0.472541
-1.28493595 -6.37483692 0.29305401 -0.069190 0.992483 0.100950
-1.26999199 -6.38544416 0.26547599 0.395890 0.882909 -0.252473
-1.29490602 -6.38372087 0.25454599 0.095269 0.982836 -0.157977
-1.28414905 -6.37700701 0.27849400 0.135694 0.887010 -0.441362
-1.29362202 -6.38438320 0.26068899 0.347000 0.935448 0.067289
-1.27735603 -6.37810612 0.27978501 0.187421 0.844144 -0.502288
-1.25669706 -6.38669395 0.29712600 0.344234 0.932807 -0.106645
-1.25217295 -6.38720512 0.29997301 0.501732 0.862308 -0.068482
-1.25383103 -6.38626194 0.29550099 0.431779 0.898045 -0.084149
-1.26736701 -6.39358997 0.23932999 0.378721 0.768819 -0.515255
-1.24657798 -6.41422796 0.22343700 0.891663 0.442343 -0.096283
-1.24858499 -6.41259003 0.22627500 0.881916 0.453107 0.130072
-1.31365395 -6.39141798 0.21234700 -0.078924 0.979875 -0.183347
-1.27840495 -6.39683104 0.19954100 0.303339 0.608282 -0.733470
-1.30268300 -6.38599300 0.25610599 -0.257630 0.950937 -0.171304
-1.25898302 -6.36933613 0.34998801 0.194971 0.864718 -0.462870
-1.33119202 -6.39345407 0.25579500 -0.603543 0.754823 -0.256860
-1.29268801 -6.38805914 0.23369101 0.086123 0.996257 -0.007443
-1.29291499 -6.37487793 0.28382400 -0.344024 0.869999 -0.353198
-1.30075204 -6.38933516 0.21655200 -0.165908 0.927135 -0.335999
-1.30647695 -6.39109612 0.20891300 0.000000 0.000000 0.000000
-1.29211402 -6.38112211 0.27186200 0.000000 0.000000 0.000000
-1.29747105 -6.38439512 0.26093200 0.003152 0.997050 -0.076696
-1.37560999 -6.44612694 0.33455199 0.000000 0.000000 0.000000
-1.30172503 -6.37590408 0.29179001 0.024923 0.995829 0.087772
-1.33418906 -6.39441013 0.27484700 -0.460525 0.883256 0.088186
-1.28597105 -6.39017010 0.23223899 0.291087 0.916707 0.273709
-1.28294206 -6.39015198 0.22967599 0.221797 0.770860 0.597145
-1.30038095 -6.38927507 0.23091701 -0.123236 0.977177 0.173029
-1.29593599 -6.38752604 0.22819200 -0.022246 0.979976 0.197869
-1.34267700 -6.39531088 0.28679499 -0.470564 0.877917 -0.088494
-1.34115601 -6.39485788 0.29263899 -0.558767 0.829270 -0.009563
-1.29855895 -6.37666416 0.30039701 -0.100965 0.992636 -0.066932
-1.29787302 -6.37537622 0.30375099 -0.041339 0.993250 -0.108375
-1.27022004 -6.37632990 0.31727901 0.591294 0.724864 -0.353473
-1.28875995 -6.37481499 0.27991900 0.001316 0.888291 -0.459279
-1.30728996 -6.38834906 0.22432999 -0.342615 0.933050 -0.109691
-1.30097699 -6.38634205 0.22455600 -0.146423 0.989191 0.007824
-1.27679503 -6.39240503 0.23118000 0.332101 0.942031 0.047812
-1.33693397 -6.39142704 0.31455401 -0.376167 0.917515 0.129091
-1.30797195 -6.36337090 0.35906699 0.010880 0.999940 -0.000989
-1.29583895 -6.39072084 0.20999999 -0.083299 0.959857 -0.267837
-1.30754995 -6.38987303 0.21900800 -0.109310 0.988488 -0.104608
-1.30855203 -6.38073683 0.28581199 -0.195606 0.970361 -0.141910
-1.34325099 -6.40250206 0.23721001 -0.216835 0.964721 0.149318
-1.31069303 -6.38949823 0.22524200 -0.149037 0.987804 0.045058
-1.31013703 -6.37930822 0.30571201 -0.466784 0.882920 -0.050648
-1.32927597 -6.38686085 0.29157001 -0.497512 0.847115 -0.186754
-1.33392799 -6.38967514 0.30839801 -0.338624 0.926688 0.163041
-1.35929096 -6.40490389 0.35026899 -0.543430 0.706293 -0.453689
-1.32040799 -6.38453388 0.30053300 0.000000 0.000000 0.000000
-1.33055794 -6.39024496 0.28216299 0.000000 0.000000 0.000000
-1.34429204 -6.39433813 0.33739701 0.000000 0.000000 0.000000
-1.36218202 -6.40363884 0.35404500 -0.490490 0.819573 -0.296175
-1.32287395 -6.39009523 0.25906000 0.000000 0.000000 0.000000
-1.30847096 -6.38838005 0.23974399 -0.118446 0.959282 -0.256416
-1.32017303 -6.39092493 0.23019999 -0.007117 0.999412 -0.033551
-1.31727898 -6.38237810 0.28243199 -0.186503 0.953983 -0.234806
-1.32150304 -6.39113092 0.23777600 -0.031902 0.999257 0.021611
-1.32480001 -6.38982391 0.23259699 -0.236494 0.967475 -0.089792
-1.36468399 -6.41755915 0.24761701 0.000000 0.000000 0.000000
-1.35560000 -6.40610123 0.23539600 -0.459751 0.743182 0.486117
-1.33413899 -6.39699793 0.24606100 0.000000 0.000000 0.000000
-1.37772703 -6.43239880 0.21944600 -0.943112 0.042344 0.329768
-1.37845397 -6.43745899 0.22179499 -0.965270 0.216376 0.146410
-1.37959898 -6.43820095 0.21444900 -0.976729 0.087450 0.195838
-1.33344603 -6.40014410 0.19498201 -0.523567 0.851975 0.004038
-1.35798395 -6.40900517 0.22014301 -0.620468 0.556224 -0.552842
-1.28291404 -6.41506004 0.11515300 0.421018 0.906706 -0.025076
-1.34875095 -6.40515423 0.25046900 -0.522804 0.852426 0.006755
-1.27415705 -6.38993979 0.24322100 0.054553 0.955311 -0.290526
-1.27312303 -6.39156389 0.23936100 0.318720 0.883655 -0.342888
-1.30376303 -6.39679098 0.18490000 0.152639 0.985643 -0.072178
-1.29804504 -6.38656712 0.24898000 -0.033082 0.966735 -0.253630
-1.33703995 -6.39707804 0.25911999 -0.674219 0.699365 -0.237313
-1.31960404 -6.38491583 0.27640000 -0.092380 0.976765 -0.193382
-1.34083998 -6.39878082 0.26320001 -0.676841 0.722065 -0.143207
-1.34565198 -6.40171719 0.26240700 0.000000 0.000000 0.000000
-1.33422399 -6.39288378 0.26058400 -0.577401 0.782837 -0.231894
-1.33412302 -6.39127779 0.26222700 -0.577401 0.782837 -0.231894
-1.32250094 -6.37959719 0.33357000 -0.687593 0.722334 0.073826
-1.25850701 -6.38893223 0.27595401 0.509768 0.786362 -0.348958
-1.35742605 -6.41011620 0.28324300 -0.621510 0.783405 -0.001372
-1.35631800 -6.40976906 0.27715001 0.000000 0.000000 0.000000
-1.34262002 -6.39582396 0.30098599 -0.830450 0.546387 -0.108698
-1.33996701 -6.39495420 0.29717201 -0.728426 0.671354 -0.136674
-1.36873603 -6.41883183 0.30500099 0.000000 0.000000 0.000000
-1.37614298 -6.43778276 0.28342900 -0.694085 0.621888 0.362631
-1.37466502 -6.43867922 0.28883201 -0.940822 0.279629 0.191470
-1.34434700 -6.40149117 0.26974300 -0.568492 0.817298 -0.094025
-1.37747300 -6.44385195 0.28718099 -0.626684 0.669676 0.398498
-1.37600005 -6.44207621 0.28725100 -0.698891 0.627210 0.343744
-1.35412204 -6.40388680 0.29967001 0.000000 0.000000 0.000000
-1.36226797 -6.40858984 0.31928799 -0.942169 0.330472 -0.055727
-1.35592604 -6.40599489 0.29401401 0.000000 0.000000 0.000000
-1.32800996 -6.37195396 0.35905001 -0.848558 0.429708 -0.308707
-1.33806002 -6.38982391 0.30235401 -0.616608 0.777074 -0.126293
-1.33254099 -6.38817978 0.30172101 -0.351199 0.936105 0.019156
-1.33982599 -6.39328289 0.31126001 -0.696903 0.696903 0.169270
-1.36580503 -6.41212606 0.36178601 -0.965034 0.211710 0.154561
-1.36630201 -6.42105579 0.21583600 -0.669260 0.646239 -0.366695
-1.36205995 -6.41717482 0.21516700 -0.765640 0.560185 -0.316208
-1.32298696 -6.37026596 0.35439101 -0.544507 0.632167 -0.551250
-1.37537301 -6.43982315 0.37261999 0.000000 0.000000 0.000000
-1.21666205 -6.40741491 0.35539699 0.914080 0.371566 -0.162472
