0.18895400 2.33341098 3.88784409 0.008492 0.961991 0.272948
0.24638300 2.33876300 3.74538207 0.284786 0.917965 0.276112
0.16870800 2.35661793 3.74338102 -0.001135 0.984392 0.175987
0.25947100 2.33333993 3.80367303 0.292302 0.937861 0.187018
0.11689500 2.35332203 3.73633599 -0.170435 0.944894 0.279514
0.24569499 2.39660001 3.65696597 0.460395 0.431112 0.776002
0.10749100 2.33874393 3.78610897 -0.251289 0.952748 0.170661
0.15522000 2.36834908 3.67301011 -0.036100 0.902494 0.429186
0.08220600 2.34421396 3.72630310 -0.369889 0.880184 0.297421
0.19039600 2.36192489 3.67799306 -0.025826 0.863145 0.504294
0.08136800 2.49419999 3.57611108 -0.627779 0.020880 0.778112
0.16971600 2.42568588 3.64056206 -0.435309 0.337875 0.834474
0.03156900 2.28009510 4.20397711 -0.022123 0.981575 0.189794
0.12064800 2.30581999 4.05183506 0.066758 0.987315 0.144057
0.19046199 2.29116392 4.14571381 -0.015557 0.970516 0.240535
0.25672999 2.25936604 4.20068121 0.510013 0.837986 0.194076
0.25927699 2.24830294 4.22873402 0.516550 0.843257 0.148637
0.27579200 2.20340109 4.46909189 0.303475 0.932800 0.194392
0.16570200 2.26689100 4.23159885 0.156153 0.954271 0.254917
0.23490900 2.25027990 4.23620987 0.182958 0.931547 0.314240
0.05288500 2.26119208 4.30741692 -0.096782 0.958791 0.267119
-0.00053800 2.24619102 4.30674124 0.142797 0.960277 0.239742
0.09533100 2.29956388 4.11684179 0.128190 0.976983 0.170505
0.08041000 2.23513389 4.41118002 0.016339 0.994497 0.103480
0.02124400 2.23535299 4.39764977 0.022976 0.994544 0.101752
0.04723500 2.28050303 4.23920202 -0.013072 0.973256 0.229351
-0.02386500 2.30247211 4.08894014 0.182744 0.974214 0.132332
0.01198500 2.29129410 4.13174915 0.092842 0.982682 0.160364
-0.00027700 2.26908207 4.23996782 0.054461 0.956230 0.287502
0.03984800 2.28760791 4.18254519 -0.016817 0.989988 0.140146
-0.02540700 2.28461099 4.21395206 0.082906 0.973835 0.211596
-0.03684300 2.29701209 3.73976398 -0.299880 0.953938 -0.008639
0.08680800 2.39780498 3.61897206 -0.431084 0.809283 0.399033
-0.00320200 2.31176305 3.89201903 0.064508 0.986381 -0.151300
0.06890600 2.39932489 3.63360596 -0.549323 0.736257 0.395184
0.04320000 2.31711102 3.79722309 -0.255285 0.966695 0.018148
0.06442600 2.32410908 3.77909589 -0.370174 0.917753 0.143879
0.05240100 2.31812596 3.99140596 0.086305 0.996241 -0.007458
0.01006400 2.31887388 3.94434595 0.009424 0.997913 -0.063875
0.05669000 2.39891005 3.55941296 -0.916513 0.210841 0.339927
0.07973000 2.37202191 3.67472100 -0.302603 0.826280 0.475072
0.05878900 2.38593602 3.64838195 -0.533225 0.728025 0.430872
0.12149700 2.37642097 3.65281701 -0.083996 0.841383 0.533872
0.09121600 2.31389904 3.95665693 -0.154828 0.987456 -0.030966
0.03316100 2.39405298 3.50186992 -0.783674 -0.055469 0.618690
0.03909200 2.36345410 3.53973508 -0.886837 0.352634 0.298613
0.08108000 2.40594912 3.60350204 -0.467289 0.762419 0.447614
0.10945500 2.40805507 3.61343598 -0.306262 0.873075 0.379399
0.04650200 2.40299606 3.60227203 -0.772302 0.576462 0.266910
0.05116000 2.39923310 3.63211012 -0.574202 0.727977 0.374622
0.04785400 2.55814695 3.54925895 -0.433491 0.472751 0.767198
0.03526200 2.43062210 3.52800107 -0.861960 -0.110434 0.494802
0.03203900 2.45364594 3.53631210 -0.657778 -0.220301 0.720275
0.04525100 2.42977500 3.55135894 -0.937841 0.125857 0.323440
0.05040200 2.47475791 3.55525303 -0.830480 0.015050 0.556846
0.11354100 2.49251890 2.72976398 0.072288 0.834855 -0.545703
-0.01780300 2.53744602 3.52224898 -0.640810 0.637481 0.427762
0.08972600 2.50305510 2.75041103 -0.037486 0.837188 -0.545630
0.09705900 2.43675399 2.61818099 0.246819 0.864625 -0.437612
0.11801000 2.45379806 2.64705300 0.245169 0.854283 -0.458359
0.10439100 2.48240590 2.70504808 0.143425 0.873591 -0.465046
0.19813900 2.48258495 2.71813798 0.070795 0.752743 -0.654496
0.23685800 2.43864489 2.67393899 0.152127 0.760636 -0.631102
0.03991900 2.42198610 3.52231002 -0.856817 -0.104420 0.504936
0.25217599 2.45842290 3.61611700 0.813373 0.294199 0.501868
0.26362500 2.42252302 3.62118602 0.907267 0.323919 0.268223
0.24042700 2.55720210 3.60567498 0.737091 -0.192352 0.647840
0.15956900 2.49400306 3.61934304 -0.899331 0.001305 0.437266
0.13008000 2.51555896 2.75386310 -0.100265 0.806479 -0.582699
0.13942100 2.47855997 2.71400499 -0.004048 0.846091 -0.533024
0.18383799 2.41975904 2.64410210 0.218222 0.825583 -0.520377
0.15697500 2.45629501 2.67786598 0.159809 0.816965 -0.554102
0.28086299 2.40798998 2.65237808 0.264974 0.791786 -0.550330
0.22077900 1.17015398 2.22275496 0.067343 -0.997312 0.028861
0.17884199 1.17480695 2.14184308 -0.091488 -0.979528 -0.179316
0.15690100 1.17001402 2.11828089 -0.055460 -0.945402 -0.321153
0.15027300 1.20556295 2.08189988 -0.023173 -0.964730 -0.262221
0.16099700 1.19259202 2.09919500 -0.126444 -0.948995 -0.288825
0.16598600 1.18305504 2.10190892 -0.152278 -0.947358 -0.281647
0.14739899 1.16853499 2.11677194 -0.018805 -0.949016 -0.314667
0.16538300 1.16899896 2.15863109 -0.039396 -0.991663 -0.122692
0.17660899 1.18303096 2.10198808 -0.186251 -0.947568 -0.259664
0.18514100 1.18990600 2.07718492 -0.262458 -0.947841 -0.180865
0.19783200 1.17990100 2.11346698 -0.149318 -0.964721 -0.216835
0.13762701 1.16939199 2.19865990 -0.043488 -0.998107 -0.043488
0.07023400 1.17503703 2.39839005 -0.046261 -0.980964 0.188601
0.23797700 1.17418599 2.47595811 0.136781 -0.987860 0.073651
0.23006500 1.16595900 2.33577895 0.193909 -0.981019 0.001147
0.24455599 1.16561997 2.33914089 0.210066 -0.977568 -0.015256
0.22370100 1.17950201 2.64747095 0.145719 -0.987395 0.061785
0.09928700 1.17401695 2.43548894 -0.094428 -0.994276 0.049992
0.12768000 1.17625594 2.61265802 -0.005034 -0.999671 -0.025168
0.10926100 1.17875099 2.53994012 -0.061405 -0.998099 -0.005204
0.01554000 1.19636798 2.47311497 -0.247307 -0.968919 -0.005974
0.07278200 1.17541802 2.57712412 -0.052926 -0.996956 -0.057247
0.06506700 1.18403697 2.46814799 -0.163080 -0.986465 0.017106
0.02462600 1.19090796 2.45088911 -0.216379 -0.974317 0.062346
0.12651800 1.17644405 2.41249490 -0.123761 -0.991220 0.046552
0.14344300 1.17683005 2.41989207 -0.133970 -0.990935 0.009965
0.03165700 1.18741202 2.16862988 -0.275566 -0.951833 -0.134455
0.02797200 1.19182801 2.15102911 -0.326526 -0.932734 -0.152930
0.02470700 1.19173896 2.16631794 -0.301637 -0.942785 -0.142026
0.05051400 1.17863095 2.46256709 -0.157755 -0.986833 0.035696
0.07435900 1.18771601 2.46921802 -0.151796 -0.988360 0.010120
0.04350300 1.17837405 2.52291393 -0.163553 -0.984848 -0.057655
0.03521600 1.18002903 2.52083206 -0.180525 -0.981527 -0.063363
0.02066400 1.17898405 2.61806798 -0.255866 -0.964224 -0.069323
0.02517300 1.17349195 2.63340712 -0.227867 -0.971820 -0.060354
0.03676000 1.18438196 2.44794989 -0.198014 -0.977920 0.066814
0.04824400 1.17910004 2.54764104 -0.138697 -0.989219 -0.046997
0.00955800 1.17558098 2.24747705 -0.129693 -0.986383 -0.101137
0.02941000 1.18448496 2.23739290 -0.100576 -0.990729 -0.091327
0.00226000 1.19725394 2.15975189 -0.351895 -0.916067 -0.192331
0.10587400 1.17055595 2.18153906 -0.067203 -0.997383 0.026668
0.06382800 1.20814896 2.01048398 0.033137 -0.997321 -0.065205
0.01881200 1.18062794 2.26165795 -0.155365 -0.978176 -0.137964
0.04609400 1.19833100 1.90936100 -0.095427 -0.994856 -0.034003
-0.02361500 1.22438502 1.71553695 0.125144 -0.982930 -0.134864
-0.01561800 1.22327995 1.72463202 0.160399 -0.982899 -0.090451
-0.01344700 1.22267306 1.71722400 0.109784 -0.990369 -0.084360
0.00943900 1.19507205 1.74722397 0.070754 -0.993931 -0.084231
0.00503600 1.19763100 1.74727404 0.085108 -0.992922 -0.082838
0.01250000 1.19468999 1.53681695 -0.243868 -0.969407 0.027905
-0.00149600 1.22332394 1.78753603 0.142818 -0.988112 -0.056895
0.00945200 1.21093202 1.69820404 -0.070570 -0.997462 -0.009480
0.02453000 1.21019900 1.77222300 -0.032677 -0.998237 -0.049543
0.03098100 1.20337403 1.75550401 -0.086882 -0.995295 -0.042891
0.00094100 1.20099902 1.73188102 0.100004 -0.994545 -0.029671
0.01756500 1.19882798 1.86993504 -0.122554 -0.990741 -0.058414
0.01002800 1.19836998 1.86552596 -0.096581 -0.995112 -0.020618
0.04078800 1.19997895 1.74803197 -0.173490 -0.984642 -0.019532
0.03854100 1.20537698 1.71142805 -0.201052 -0.975658 0.087575
0.04694500 1.19760299 1.83915198 -0.134400 -0.985998 -0.098719
0.05460600 1.19743097 1.83499396 -0.152252 -0.984243 -0.089913
0.05428900 1.19368994 1.81521702 -0.177372 -0.983184 -0.043462
0.05910600 1.19482696 1.80204701 -0.205018 -0.978758 -0.001158
0.06965600 1.20965505 1.99256301 0.076819 -0.996481 -0.033541
0.06285500 1.20926499 2.00336003 0.032878 -0.997995 -0.054089
0.05453900 1.19461095 1.89719105 -0.090200 -0.994428 -0.054565
0.04476700 1.21153402 1.76625395 -0.192131 -0.981363 -0.003451
0.08146700 1.20092106 1.83216906 -0.193661 -0.980187 -0.041584
0.12232100 1.20812500 2.02184510 0.066022 -0.996831 -0.044376
0.15512700 1.17488301 1.87299395 -0.110730 -0.989576 0.092081
0.13921601 1.18727601 1.92787099 -0.085427 -0.983015 0.162432
0.10923600 1.20052505 1.95485198 -0.005575 -0.988929 0.148284
0.20669200 1.18100405 1.99158001 -0.168628 -0.985020 0.036052
0.16536100 1.18721604 1.93876302 -0.150930 -0.980432 0.126389
0.23260100 1.18454802 1.95439994 -0.121497 -0.991276 0.051097
0.16900399 1.19246602 1.96769702 -0.192212 -0.975941 0.102926
0.17038800 1.19770896 2.02175903 -0.229689 -0.972871 0.027659
0.16172500 1.20214498 2.02429795 -0.178093 -0.983583 0.029100
0.14517200 1.18895805 1.93801606 -0.107867 -0.982925 0.149075
0.10771200 1.17730200 2.09538698 0.111778 -0.964888 -0.237689
0.02557100 1.19907606 2.07591200 -0.278410 -0.960330 -0.015944
0.10294000 1.20616901 2.05426502 0.156563 -0.966551 -0.203144
0.08536100 1.20379806 2.02637410 0.153889 -0.982705 -0.102996
0.02974500 1.19165206 2.05659509 -0.181953 -0.982544 -0.038738
0.03229300 1.18315995 1.97265995 -0.118544 -0.992943 0.003263
0.02958000 1.18648601 1.96555901 -0.126605 -0.991923 0.007706
0.02814700 1.19834006 2.10393906 -0.361929 -0.930486 -0.056593
0.10637100 1.19618106 1.93804395 -0.026213 -0.988098 0.151577
0.04861600 1.19357204 1.89017606 -0.100330 -0.993159 -0.059747
0.04769900 1.19008398 1.97711003 -0.040046 -0.999109 -0.013349
0.09248200 1.17885303 2.06291795 0.133583 -0.970701 -0.199738
0.07434000 1.20397794 1.97660506 0.078314 -0.996623 -0.024674
0.12509400 1.20581603 1.97885001 -0.035211 -0.997655 0.058686
0.08082300 1.20385301 2.01687694 0.142044 -0.987267 -0.071609
0.14380200 1.19629800 1.97626805 -0.147812 -0.984214 0.097340
0.11917300 1.21103096 2.07982802 0.146368 -0.949375 -0.277964
0.09243000 1.19208205 1.92745697 -0.012047 -0.993294 0.114990
0.02022700 1.18528903 1.97246504 -0.173783 -0.984768 0.005679
0.10090800 1.20633698 1.97200799 0.054645 -0.997539 0.043930
0.11734800 1.18144405 1.89128101 -0.102831 -0.994029 0.036488
0.12437200 1.18231499 1.89566004 -0.091911 -0.992861 0.076025
0.04123500 1.20585203 1.72839200 -0.218655 -0.974886 0.042281
0.04972900 1.20232999 1.73389304 -0.233021 -0.971925 0.032599
0.04357600 1.20620096 1.71786499 -0.225826 -0.972881 0.050048
0.01231400 1.18989599 1.92044699 -0.207705 -0.978185 -0.003481
0.00806600 1.19315100 2.16498089 -0.318910 -0.931662 -0.174077
-0.02149500 1.18302000 2.32743096 -0.269675 -0.962777 0.018304
-0.00664200 1.18635201 2.16912508 -0.333574 -0.921233 -0.200145
0.01613400 1.17482603 2.17999101 -0.273796 -0.955011 -0.113973
-0.00857400 1.17568004 2.31790304 -0.259350 -0.965562 -0.020699
-0.01082100 1.17944300 2.17869401 -0.309779 -0.926507 -0.213592
0.00128500 1.16950405 2.31795192 -0.265940 -0.962629 -0.051190
0.00447200 1.17478800 2.23978496 -0.142096 -0.985116 -0.096721
0.03509400 1.17298901 2.17315006 -0.230526 -0.968711 -0.091958
0.02583500 1.18282402 2.17423511 -0.266338 -0.956457 -0.119393
0.04120300 1.16708899 2.62956691 -0.150966 -0.987619 -0.042639
0.02525500 1.17967606 2.43237901 -0.206221 -0.966256 0.154342
0.01976600 1.17740095 2.42279005 -0.216712 -0.958584 0.184803
-0.00277100 1.17142606 2.20520997 -0.210417 -0.971447 -0.109618
0.05655700 1.16792202 2.63465691 -0.065416 -0.997858 0.001038
0.07457400 1.20054901 1.84687805 -0.161261 -0.985225 -0.057677
0.03220000 1.19236803 1.95837498 -0.118161 -0.992773 0.020982
0.03541700 1.18315196 1.41328597 -0.201052 -0.975658 0.087575
-0.01685000 1.17722702 1.18711996 -0.278677 -0.958190 0.064897
0.00233400 1.17625201 1.22006094 -0.218282 -0.974342 0.054875
-0.00812900 1.17619002 1.22691798 -0.253562 -0.965536 0.058707
-0.00429400 1.18273306 1.32567298 -0.279364 -0.956532 0.083680
0.00593500 1.17900395 1.28307700 -0.237843 -0.969857 0.052991
0.00087000 1.17417800 1.20171499 -0.215415 -0.974846 0.057201
-0.00017000 1.17616498 1.21300995 -0.232041 -0.971136 0.055248
0.02067800 1.17835999 1.34727597 -0.214043 -0.973709 0.077946
-0.00089100 1.17867696 1.27417803 -0.251271 -0.966712 0.048274
0.02135700 1.17179406 1.16992402 -0.155248 -0.986351 0.054862
0.02817500 1.17781901 1.19621801 -0.143841 -0.988476 0.047180
0.02584900 1.17764699 1.19585705 -0.149362 -0.987642 0.047472
-0.01404200 1.17275095 1.14307404 -0.249451 -0.966776 0.055847
-0.00251000 1.16902697 1.10337603 -0.226565 -0.973874 0.015421
-0.00866900 1.16968596 1.08020699 -0.242796 -0.969988 0.013156
-0.00663000 1.16991103 1.06769896 -0.234388 -0.972055 0.013088
0.00628400 1.16759002 1.01914597 -0.174169 -0.984683 0.007969
0.02509800 1.16602802 0.93205798 -0.151459 -0.988412 0.010097
-0.00410800 1.17258203 1.16549897 -0.232563 -0.970860 0.057833
-0.01574300 1.17259598 1.08200204 -0.271947 -0.962182 0.015853
-0.01855700 1.17463005 1.04585397 -0.279702 -0.959858 0.020947
-0.03015900 1.17399299 0.97199798 -0.261619 -0.964949 0.020686
-0.01590300 1.17218006 0.92403901 -0.204554 -0.978855 -0.001156
-0.02541100 1.17533898 0.77301401 -0.204631 -0.978721 0.015201
-0.01068100 1.17272902 0.79984403 -0.214077 -0.976799 0.005849
-0.00868400 1.17333901 0.85443002 -0.207705 -0.978185 0.003481
0.00569200 1.17058897 0.86448199 -0.201933 -0.979315 0.012840
-0.01694900 1.17285502 0.89728701 -0.205018 -0.978758 -0.001158
0.01440900 1.16669405 0.80237699 -0.253021 -0.967290 0.018159
-0.01621600 1.17241204 0.70537502 -0.236391 -0.971022 0.035156
-0.01698100 1.17306900 0.75766802 -0.217012 -0.975961 0.020160
-0.02136000 1.17351305 0.73198801 -0.214727 -0.976356 0.024913
0.00328600 1.16895103 0.73488200 -0.251314 -0.967252 0.035552
-0.00176000 1.17029500 0.78788698 -0.232129 -0.972562 0.015475
-0.00376600 1.17219198 0.80982500 -0.219035 -0.975699 0.005857
-0.01001800 1.17281699 0.86631399 -0.202796 -0.979215 0.003477
0.00215600 1.17024899 0.87009299 -0.200567 -0.979646 0.008115
-0.01630300 1.17431402 0.83615899 -0.207705 -0.978185 0.003481
-0.02766400 1.17438602 0.98768800 -0.266352 -0.963531 0.025776
-0.00385900 1.16903400 0.98480397 -0.189485 -0.981878 0.003445
-0.02577200 1.17456603 0.94588000 -0.234394 -0.972083 0.010708
0.03669900 1.17802000 1.35734403 -0.181318 -0.981040 0.068445
0.05530700 1.17375195 1.32128203 -0.130486 -0.990561 0.041983
0.02660200 1.17174006 1.28444004 -0.172779 -0.983781 0.048190
0.04192000 1.17503500 1.32894194 -0.152969 -0.986706 0.054882
0.08240300 1.17730403 1.45312500 -0.143883 -0.985780 0.086806
0.07734700 1.17329502 1.39747906 -0.128992 -0.988939 0.073212
0.04538200 1.17642498 1.37185597 -0.165344 -0.983736 0.070182
0.05854700 1.17017400 1.30792296 -0.116010 -0.992276 0.043926
0.04662900 1.17366600 1.31084394 -0.131896 -0.989797 0.053906
0.03414400 1.17231798 1.28182101 -0.154254 -0.986995 0.045232
0.02992000 1.17776203 1.33569598 -0.186836 -0.979985 0.068707
0.05293700 1.17388105 1.39895296 -0.155619 -0.984795 0.077216
0.04415800 1.17254305 1.25036597 -0.124392 -0.991772 0.030257
0.08252800 1.16962695 1.28056896 -0.062554 -0.997690 0.026506
0.05628700 1.17292905 1.35846901 -0.148363 -0.987137 0.059579
0.03790900 1.18333197 1.42603898 -0.192540 -0.977418 0.087072
0.07292500 1.17913198 1.42573500 -0.145587 -0.985969 0.081671
0.13315900 1.16759706 1.34350300 -0.023017 -0.999731 -0.003002
0.08708000 1.16911101 1.26980102 -0.049041 -0.998556 0.021912
0.06464600 1.17339003 1.37881005 -0.136218 -0.988454 0.066363
0.09396700 1.17410803 1.36005199 -0.092032 -0.994614 0.047679
0.07051900 1.17020702 1.34598100 -0.113533 -0.992567 0.043839
0.08325300 1.16712999 1.24252903 -0.059574 -0.998131 0.013587
0.07234100 1.16615295 1.19961905 -0.060563 -0.997689 0.030813
0.06517000 1.16843903 1.21570802 -0.071904 -0.996991 0.028976
0.05536600 1.17028403 1.23122001 -0.092664 -0.995324 0.027254
0.02529100 1.17583704 1.18974602 -0.147720 -0.987517 0.054668
0.02057900 1.17644095 1.19080400 -0.160538 -0.985492 0.055075
0.03949000 1.16957498 1.20505404 -0.108135 -0.993280 0.041247
0.03326200 1.16663694 1.10833097 -0.095026 -0.995038 0.029491
0.00234400 1.16879201 1.10926199 -0.201028 -0.979274 0.024688
0.02657800 1.16602802 1.10584795 -0.111609 -0.993427 0.025416
0.01683900 1.17169702 1.24669898 -0.185486 -0.981777 0.041350
0.02055600 1.16719306 1.11208200 -0.141374 -0.989614 0.026013
0.03015000 1.17543197 1.20358801 -0.136153 -0.989682 0.044622
0.01609600 1.17435503 1.19849896 -0.168193 -0.984456 0.050575
0.02689300 1.17817700 1.19791496 -0.149021 -0.987699 0.047363
0.01343600 1.16777301 1.07046497 -0.168990 -0.985586 0.007939
0.00992300 1.16866302 0.90046000 -0.182408 -0.983169 0.010325
0.03054700 1.17504394 1.19324994 -0.131331 -0.990122 0.049106
0.01163100 1.17381799 1.20888698 -0.189859 -0.980340 0.053734
0.00951900 1.17574000 1.22079396 -0.203702 -0.977529 0.054240
0.02035300 1.17445004 1.21895301 -0.167804 -0.984528 0.050459
0.01300800 1.17508602 1.26916599 -0.206531 -0.977740 0.037008
0.03582400 1.18679500 1.45516598 -0.196906 -0.977194 0.079496
0.03699900 1.18587005 1.44568896 -0.198248 -0.976463 0.084963
0.00590100 1.18426204 1.35585797 -0.271427 -0.958357 0.088761
0.04924300 1.17524099 1.34728098 -0.150340 -0.987116 0.054775
0.00783600 1.18173003 1.33951700 -0.249704 -0.964591 0.084925
0.02730400 1.17347598 1.27521598 -0.166719 -0.985160 0.040805
0.01853600 1.17822301 1.33859003 -0.224577 -0.971513 0.075686
0.00913400 1.17732000 1.30400801 -0.233610 -0.970285 0.063038
0.00098300 1.17817795 1.29073000 -0.250617 -0.966311 0.058602
0.02437800 1.17516899 1.20708895 -0.154592 -0.986828 0.047656
0.04260800 1.17060900 1.26247799 -0.134386 -0.990388 0.032749
0.02847000 1.17270696 1.25449598 -0.162994 -0.986057 0.033524
0.09702900 1.17230999 1.34665596 -0.076499 -0.996645 0.029091
0.14017101 1.16686904 1.41206706 -0.130369 -0.991465 0.001096
0.08766200 1.17928100 1.46577299 -0.150596 -0.985398 0.079448
0.07965600 1.17935598 1.44465697 -0.143853 -0.985574 0.089165
0.08890400 1.17888403 1.44974995 -0.157639 -0.983140 0.092658
0.10427900 1.17943799 1.49013698 -0.157202 -0.986296 0.050072
0.09449800 1.17943501 1.42491305 -0.163738 -0.983626 0.075296
0.00753600 1.19006896 1.42799604 -0.270820 -0.958781 0.085995
0.08415600 1.18050599 1.42943799 -0.145899 -0.985708 0.084218
0.11150300 1.16829896 1.32653201 -0.048643 -0.998726 0.013454
0.16771300 1.16939497 1.33381605 0.031455 -0.999463 -0.009132
0.16093799 1.16772199 1.27283704 0.012960 -0.999892 0.006978
0.15305200 1.16862094 1.28868699 0.014865 -0.999889 0.000991
0.22011299 1.17119598 1.37853301 0.127517 -0.988546 -0.080722
0.24526800 1.17475796 1.34456897 0.113796 -0.993233 0.023201
0.14645700 1.16596198 1.34262800 0.000995 -0.999821 -0.018902
0.26179999 1.16336501 1.49491501 0.226305 -0.972500 -0.055047
0.15609600 1.17503798 1.52634597 -0.240741 -0.969137 -0.053086
0.23300201 1.17316902 1.38994706 0.146555 -0.985371 -0.086980
0.15524399 1.16824901 1.35601902 0.001022 -0.998844 -0.048051
0.15219299 1.16604197 1.37167799 -0.022086 -0.998081 -0.057845
0.11644300 1.16820502 1.34230304 -0.050814 -0.998643 0.011407
0.16657500 1.16724002 1.40202606 -0.041865 -0.997248 -0.061187
0.10332200 1.17562199 1.42907798 -0.169149 -0.982501 0.077976
0.11185900 1.17725503 1.46372795 -0.179316 -0.979528 0.091488
0.13700300 1.16488194 1.39420795 -0.105410 -0.994329 -0.014127
0.18903400 1.16904402 1.40945101 0.035844 -0.996032 -0.081464
0.18880799 1.16857398 1.40324295 0.038331 -0.995513 -0.086519
0.12293700 1.16691196 1.38854003 -0.112341 -0.993621 0.009816
0.12884299 1.17059398 1.43569505 -0.163553 -0.984848 0.057655
0.12854099 1.16759706 1.30713701 -0.018940 -0.999820 0.000997
0.13842300 1.16597497 1.29881704 -0.000978 -0.999999 -0.000978
0.20311300 1.17089498 1.39206195 0.102045 -0.988781 -0.109083
0.16810399 1.16718495 1.28867805 0.021100 -0.999753 0.007033
0.22215199 1.17073905 1.28633797 0.036677 -0.998654 0.036677
0.22319600 1.16539896 1.41352499 0.143644 -0.983781 -0.107431
0.20701399 1.17272794 1.31477404 0.051022 -0.998575 0.015619
0.21664999 1.17063606 1.36503601 0.105469 -0.992319 -0.064643
0.24047500 1.16832304 1.27240896 0.050049 -0.997792 0.043660
0.26499200 1.17306399 1.29203403 0.106607 -0.993130 0.048254
0.20243201 1.16995800 1.36217594 0.089257 -0.993128 -0.075699
0.25354800 1.17778599 1.36763597 0.145811 -0.989028 -0.023737
0.24440999 1.17565298 1.36211598 0.128539 -0.991427 -0.023472
0.21872599 1.16858196 1.22994995 0.013456 -0.998824 0.046577
0.11487800 1.16831696 1.18769002 -0.009096 -0.999586 0.027289
0.20326200 1.16277301 1.14647305 -0.040445 -0.995813 0.081982
0.09321000 1.16666496 1.20129704 -0.042615 -0.998853 0.021827
0.20035399 1.16418397 1.15645099 -0.035631 -0.996584 0.074501
0.17493200 1.16597795 1.19303298 -0.019708 -0.998901 0.042528
0.14796101 1.16143894 1.09190202 -0.063865 -0.993823 0.090755
0.14990900 1.16872394 1.23154497 0.002985 -0.999852 0.016913
0.20681199 1.17061400 1.30285299 0.044692 -0.998806 0.019747
0.22138201 1.17195404 1.32159102 0.064937 -0.997475 0.028743
0.25737000 1.17375600 1.32256699 0.107287 -0.992687 0.055337
0.15242399 1.16789901 1.31112897 0.012908 -0.999912 -0.002979
0.12141200 1.16680503 1.32110703 -0.031329 -0.999496 0.005053
0.13823900 1.16858602 1.24518299 0.000989 -0.999940 0.010880
0.13037799 1.17178500 1.42156899 -0.152231 -0.987787 0.033193
0.13986300 1.16958499 1.42229795 -0.139840 -0.990067 0.014543
0.13488600 1.16541398 1.40359294 -0.116399 -0.993197 -0.003264
0.10349600 1.17489195 1.42369497 -0.165011 -0.984128 0.065292
0.15875199 1.16744006 1.36810100 -0.001045 -0.997548 -0.069985
0.18502399 1.17202199 1.36511695 0.061259 -0.994620 -0.083535
0.20315900 1.16570795 1.40962398 0.078121 -0.992924 -0.089442
0.20577300 1.16826499 1.35318601 0.077623 -0.995975 -0.044824
0.19146800 1.17116702 1.36531496 0.072704 -0.994363 -0.077178
0.16268100 1.17427504 1.61359406 -0.200380 -0.974518 0.100812
0.13241100 1.17910194 1.61127198 -0.211596 -0.973835 0.082906
0.20150900 1.17112100 1.80117798 -0.083535 -0.994620 0.061259
0.19358900 1.17133701 1.80500197 -0.093393 -0.993561 0.064137
0.24606501 1.17103803 1.75411606 0.061786 -0.997997 0.013614
0.22875500 1.16794002 1.81771302 -0.013642 -0.997988 0.061915
0.12991799 1.18601501 1.72004402 -0.219280 -0.975500 0.017779
0.13852800 1.18204296 1.72394300 -0.214559 -0.976654 0.010552
0.19884200 1.16472495 1.72836804 -0.109645 -0.993452 0.032118
0.22190000 1.17994905 1.88145399 -0.076474 -0.991883 0.101585
0.20441300 1.16533303 1.48987699 -0.076536 -0.997066 0.001048
0.13479000 1.17407203 1.64163601 -0.186519 -0.981862 0.034019
0.17401101 1.17422795 1.53553700 -0.213906 -0.976321 -0.032265
0.16617300 1.16779101 1.71587801 -0.171957 -0.985051 0.010249
0.10886200 1.18675601 1.69006097 -0.216330 -0.975296 0.044716
0.11916700 1.18274105 1.68396103 -0.199217 -0.979580 0.027112
0.17137900 1.16992605 1.64280200 -0.183669 -0.980768 0.066025
0.17464200 1.16920197 1.79045606 -0.143841 -0.988476 0.047180
0.14869601 1.17865205 1.84550500 -0.163196 -0.985049 0.055182
0.15778001 1.17674398 1.74501801 -0.182408 -0.983169 0.010325
0.16461700 1.17518401 1.80756998 -0.152304 -0.987068 0.049993
0.11277200 1.18740499 1.69813704 -0.221474 -0.974246 0.042359
0.16336200 1.16732097 1.70507598 -0.177565 -0.984055 0.010310
0.15226699 1.16868901 1.64206398 -0.191573 -0.979553 0.061448
0.14645800 1.17885399 1.71873498 -0.204176 -0.978878 0.010500
0.15527000 1.17387104 1.78220606 -0.185691 -0.982174 0.029197
0.15576300 1.17662394 1.73236203 -0.186846 -0.982373 0.005731
0.18802001 1.16669703 1.74298596 -0.124164 -0.992212 0.009889
0.15865600 1.17036295 1.63865805 -0.192422 -0.979052 0.066561
0.15172000 1.17002594 1.47423601 -0.193211 -0.980280 0.041487
0.14329000 1.17074299 1.45802796 -0.182486 -0.981609 0.056058
0.08646100 1.18059397 1.44385505 -0.154593 -0.983881 0.089880
0.08917300 1.18333602 1.51467395 -0.165244 -0.985683 0.033511
0.07376100 1.18518698 1.61726999 -0.178750 -0.983699 0.019605
0.12724300 1.17888904 1.57925296 -0.243224 -0.969230 0.037889
0.14068399 1.16897798 1.58584702 -0.232072 -0.971265 0.052799
0.11910600 1.17728305 1.47791398 -0.186098 -0.979146 0.081494
0.08054800 1.18294299 1.52128696 -0.157410 -0.986971 0.033320
0.11988500 1.17510605 1.59197998 -0.217793 -0.974592 0.052319
0.12638099 1.17335796 1.60038197 -0.211678 -0.975186 0.064849
0.09373300 1.18642294 1.61593497 -0.172392 -0.984604 0.028925
0.10142500 1.18382001 1.67612803 -0.200494 -0.978458 0.049223
0.11024700 1.18496096 1.67920899 -0.199155 -0.979079 0.041739
0.07305300 1.18453395 1.54730999 -0.173106 -0.984753 0.017196
0.06874300 1.18402302 1.54351294 -0.171252 -0.984985 0.021837
0.08106000 1.18123603 1.47159600 -0.146665 -0.986761 0.069226
0.07635400 1.18725801 1.62431097 -0.176899 -0.983929 0.024280
0.10720800 1.18147397 1.50619698 -0.173883 -0.984572 0.019576
0.05852400 1.18195295 1.44161904 -0.159333 -0.983554 0.085058
0.02434400 1.18320799 1.43435705 -0.224201 -0.970703 0.086424
0.00724300 1.19346297 1.52497602 -0.258839 -0.965433 0.030668
0.01392500 1.19143903 1.48298502 -0.257680 -0.964101 0.064106
0.09176400 1.17931902 1.47711504 -0.151627 -0.986165 0.066998
0.10768200 1.18112695 1.47601402 -0.164418 -0.982909 0.082809
0.05636900 1.18724406 1.48945904 -0.161942 -0.984656 0.065013
0.07155000 1.18456101 1.57957399 -0.190644 -0.981291 0.026901
0.06759700 1.19284403 1.70175195 -0.203249 -0.977760 0.051714
0.04272300 1.19076705 1.62927604 -0.190061 -0.980999 0.038957
0.07574700 1.19310606 1.71903205 -0.208364 -0.977523 0.032148
0.03850400 1.18220997 2.00183702 -0.099268 -0.993794 -0.050192
0.01289400 1.19686902 1.61596799 -0.250698 -0.968005 0.010796
0.00761300 1.20411694 1.73025703 0.057371 -0.998261 -0.013560
0.06106400 1.19800103 1.84032094 -0.158335 -0.984533 -0.075001
0.08949600 1.19943702 1.83152699 -0.198313 -0.979829 -0.024642
0.06230900 1.19453800 1.85446894 -0.137097 -0.987803 -0.073822
0.12171800 1.18018901 1.84791803 -0.182821 -0.983092 0.010348
0.05499700 1.18695605 1.62504601 -0.190484 -0.980816 0.041410
0.06891200 1.18691695 1.66073298 -0.200653 -0.976184 0.082477
0.12427300 1.17518306 1.75858104 -0.222274 -0.974949 0.008232
0.08450800 1.19917500 1.82464802 -0.208833 -0.977339 -0.034607
0.11547000 1.18347299 1.70747399 -0.220477 -0.974677 0.037349
0.10932900 1.18403196 1.70158601 -0.224810 -0.973365 0.044962
0.11018000 1.17907703 1.60968602 -0.185607 -0.980724 0.061071
0.06341300 1.19037902 1.68566501 -0.198891 -0.977374 0.071991
0.12940501 1.17139006 2.24179792 0.008130 -0.979093 -0.203252
0.14354300 1.17001402 2.23150110 0.003326 -0.990032 -0.140800
0.19775900 1.17923605 1.91181302 -0.117786 -0.986310 0.115407
0.12343700 1.16376305 2.21621299 -0.048638 -0.991998 -0.116506
0.15396300 1.16672504 2.15591693 -0.040105 -0.988876 -0.143232
0.13409699 1.20088899 2.09423208 0.084693 -0.949861 -0.300985
0.08842900 1.18912005 1.90146005 -0.075548 -0.997014 0.015961
0.11366800 1.17976606 1.88173497 -0.114278 -0.992997 0.029956
0.08832300 1.16593802 2.16003489 -0.097488 -0.995232 0.003214
0.12416200 1.18039894 1.87681198 -0.125996 -0.990939 0.046539
0.06525500 1.17417800 2.18405795 -0.146744 -0.989123 0.010082
0.05627500 1.17727995 2.17877889 -0.177303 -0.983855 -0.024336
0.07877000 1.17092097 2.08167005 -0.019386 -0.986423 -0.163073
0.07762400 1.18458605 1.94336998 0.037567 -0.997147 0.065475
0.05182100 1.17812395 2.00524592 -0.039478 -0.997619 -0.056550
0.05225100 1.18455505 2.08395100 -0.129693 -0.986383 -0.101137
0.03823800 1.16589499 2.16979504 -0.234569 -0.967437 -0.095095
0.03418900 1.17396200 2.16295695 -0.259002 -0.959217 -0.113232
0.03791700 1.18580699 1.96173203 -0.077828 -0.996839 0.015992
0.03468600 1.18286395 1.96704400 -0.098529 -0.995035 0.014076
0.03685200 1.17164600 2.15667295 -0.260714 -0.957697 -0.121841
0.03923000 1.19047701 2.02654409 -0.096650 -0.994276 -0.045548
0.03683300 1.18744099 1.88112295 -0.127246 -0.988783 -0.078215
0.05954200 1.16724706 2.14816594 -0.242661 -0.966872 -0.079211
0.09617800 1.19613802 1.94826496 0.007646 -0.992858 0.119056
0.04740200 1.18895996 1.92769098 -0.072667 -0.997329 -0.007372
0.11802200 1.17310798 2.18044996 -0.027234 -0.999604 0.007061
0.08845800 1.17607498 2.07928801 0.063390 -0.981948 -0.178210
0.05705600 1.16972005 2.15195704 -0.250261 -0.964202 -0.087655
0.02679300 1.17342997 2.42017889 -0.193425 -0.961860 0.193425
0.01108000 1.19294405 2.03980708 -0.249551 -0.968355 -0.003582
0.09878400 1.16988099 2.24266410 -0.115378 -0.969936 -0.214273
0.09279100 1.17261004 2.23510098 -0.127933 -0.977506 -0.167679
0.09400300 1.17288005 2.20558405 -0.122429 -0.991785 -0.037066
0.08892400 1.18078494 2.46326900 -0.142660 -0.989771 0.001106
0.04944600 1.17620206 2.59684110 -0.114261 -0.992146 -0.050908
0.05037600 1.18162894 2.21950102 -0.110933 -0.991535 -0.067475
0.01168000 1.16622901 2.31359410 -0.269631 -0.960797 -0.064559
0.03513500 1.17841399 2.43734002 -0.196388 -0.971803 0.130503
0.01595000 1.19034803 2.44098401 -0.226625 -0.966676 0.119074
0.08561100 1.18131697 2.48408389 -0.153992 -0.988020 0.010116
0.09567500 1.17768300 2.51909304 -0.083658 -0.996481 0.005295
0.08459400 1.17844403 2.52488303 -0.079947 -0.996671 -0.015989
0.07732800 1.18096900 2.49038100 -0.151459 -0.988412 -0.010097
0.12505400 1.16696000 2.47972798 -0.133523 -0.990766 0.023563
0.15126701 1.17551696 2.42046189 -0.135260 -0.990809 0.001100
0.08708100 1.17953396 2.03012705 0.165906 -0.976723 -0.135968
0.13991800 1.17172396 2.38923001 -0.107951 -0.990130 0.089379
0.11293200 1.17032003 2.19456410 -0.070569 -0.997440 -0.011586
0.11125200 1.17628205 2.50855994 -0.117488 -0.991232 0.060455
0.12043900 1.17490196 2.40311790 -0.099101 -0.992146 0.076319
0.22068600 1.16096306 2.41621089 0.052391 -0.997568 0.045976
0.12646601 1.16801798 2.24931407 0.001154 -0.979409 -0.201881
0.15309700 1.17170799 2.25806189 0.042886 -0.986380 -0.158794
0.16969500 1.16076899 2.27533507 0.081398 -0.991678 -0.099741
0.11488800 1.17306900 2.37600899 -0.038535 -0.984403 0.171657
0.16106300 1.16813099 2.43603206 -0.097280 -0.995252 -0.003207
0.15156400 1.16877306 2.43612504 -0.123058 -0.992221 -0.018847
0.10739300 1.17489398 2.49331903 -0.129367 -0.991060 0.032623
0.12731300 1.17118597 2.39262605 -0.091306 -0.990496 0.102864
0.10713600 1.16983795 2.60144997 0.013350 -0.999189 -0.037996
0.11350300 1.17964602 2.63169599 0.019397 -0.999432 -0.027563
0.13830000 1.17638898 2.40196705 -0.122554 -0.990741 0.058414
0.19172899 1.16938102 2.42619801 -0.013114 -0.999690 0.021184
0.18306600 1.16790199 2.57911110 -0.009097 -0.999639 0.025269
0.18704399 1.16787505 2.56500292 -0.009114 -0.999527 0.029368
0.17137399 1.16988301 2.46638608 -0.034370 -0.998818 0.034370
0.16628200 1.16233897 2.37448597 -0.066917 -0.992406 0.103210
0.16583200 1.16162300 2.35384703 -0.014654 -0.988589 0.149923
0.20488399 1.16859198 2.42246294 0.019512 -0.999235 0.033890
0.22476900 1.17171395 2.30077410 0.194640 -0.980278 -0.034209
0.20615600 1.16724706 2.24820805 0.096581 -0.995112 -0.020618
0.16590600 1.16751504 2.51363707 -0.029665 -0.994324 0.102179
0.17135900 1.16877306 2.50707293 -0.020703 -0.994856 0.099159
0.21974701 1.17722094 2.53156900 0.111149 -0.991178 0.072190
0.19900700 1.16915500 2.52259803 0.009497 -0.997145 0.074918
0.18358800 1.16101098 2.37326002 -0.026987 -0.996352 0.080960
0.22128101 1.16470695 2.32950902 0.177166 -0.984127 0.010287
0.18191899 1.16859198 2.42271590 -0.042269 -0.998987 0.015464
0.22681600 1.16488504 2.34570789 0.166782 -0.985941 0.010211
0.22786599 1.17426598 2.56289911 0.157570 -0.987361 0.017004
0.24693200 1.17879498 2.63185596 0.198138 -0.978683 0.054038
0.22188100 1.17168701 2.60744905 0.109879 -0.993349 0.034407
0.22300200 1.17517197 2.12016702 -0.083548 -0.987273 -0.135323
0.22586299 1.17199194 2.61427498 0.149995 -0.987175 0.054649
0.21823899 1.17534697 2.61994696 0.106381 -0.993265 0.045912
0.26242900 1.16989195 2.40054607 0.201039 -0.979329 0.022338
0.25171301 1.17543602 2.30592108 0.241636 -0.970152 -0.020437
0.25954601 1.17553401 2.49009800 0.212473 -0.971846 0.101836
0.20296501 1.16070902 2.37791800 0.017562 -0.998948 0.042355
0.22020499 1.16604304 2.37487197 0.117402 -0.992982 0.014264
0.22206900 1.16563797 2.38654089 0.098948 -0.994921 0.018485
0.18065800 1.17223299 2.15017796 -0.054455 -0.988294 -0.142509
0.18700400 1.18866205 1.95942605 -0.160020 -0.982981 0.090237
0.23503999 1.16555703 2.22219396 0.111526 -0.992468 0.050694
0.19220200 1.15926099 2.18097806 -0.028405 -0.998373 -0.049445
0.20196301 1.15876806 2.15994406 -0.022663 -0.996101 -0.085257
0.22969300 1.16957700 2.06230807 -0.160020 -0.982981 -0.090237
0.24096701 1.16207600 2.25072598 0.147409 -0.988441 0.035424
0.22161700 1.16158998 2.42520595 0.054196 -0.997837 0.037193
0.26244500 1.16859806 1.83156800 0.071075 -0.996146 0.051393
0.26497099 1.17411804 2.07576704 0.005143 -0.998716 -0.050399
0.21604399 1.16629601 2.23451996 0.086305 -0.996241 0.007458
0.15949801 1.17729497 1.84980202 -0.121825 -0.989682 0.075415
0.21718501 1.17204499 2.30903602 0.177956 -0.983925 -0.014925
0.21725100 1.17238402 2.31609797 0.173783 -0.984768 -0.005679
0.18180500 1.16800106 2.24643898 0.036130 -0.995207 -0.090871
0.20131600 1.18081498 1.98496199 -0.159142 -0.986216 0.045303
0.22097801 1.16913497 1.81947398 -0.044465 -0.996672 0.068325
0.19127500 1.18339300 1.92336905 -0.123052 -0.985611 0.115884
0.18203600 1.18566203 1.92627001 -0.126224 -0.984544 0.121415
0.20624800 1.17774200 1.88173795 -0.098650 -0.989986 0.100972
0.21997599 1.18248796 1.88648999 -0.081048 -0.991976 0.097029
0.14003100 1.17983997 1.85666502 -0.158577 -0.985528 0.059907
0.17002700 1.17783403 1.87128603 -0.103315 -0.990194 0.094028
0.18163200 1.18673801 1.91988504 -0.131299 -0.984144 0.119254
0.20338500 1.18202305 1.94286895 -0.135323 -0.987273 0.083548
0.20108700 1.17892206 1.97786403 -0.148684 -0.986936 0.062049
0.16922700 1.16732597 2.26398611 0.068272 -0.989364 -0.128444
0.20026501 1.17958403 2.10644889 -0.157886 -0.964280 -0.212690
0.20097500 1.16093004 2.17273211 -0.017911 -0.997772 -0.064270
0.20488399 1.17711401 1.93617904 -0.138541 -0.986367 0.088809
0.16230400 1.16999996 2.10689592 -0.109971 -0.947337 -0.300763
0.16191401 1.19033098 1.96808600 -0.195969 -0.974853 0.106098
0.16624101 1.19437802 1.97607100 -0.199992 -0.975118 0.095648
0.16423599 1.18232405 1.89647400 -0.114698 -0.983987 0.136430
0.14940000 1.17388999 1.79529297 -0.183026 -0.982742 0.026813
0.18068101 1.19344103 1.96755898 -0.179705 -0.979207 0.094131
0.17721500 1.19387496 1.96495605 -0.180094 -0.978876 0.096785
0.20024300 1.17987704 2.00586390 -0.188948 -0.981833 0.017388
0.20359100 1.18246698 1.96469796 -0.147640 -0.986238 0.074411
0.21774100 1.17221904 1.82576895 -0.058314 -0.995733 0.071517
0.25354099 1.17764604 1.98146200 -0.080791 -0.996423 0.024776
0.23862401 1.18424106 1.98040295 -0.117233 -0.992576 0.032379
0.26073301 1.17649806 1.97506797 -0.060067 -0.997949 0.022130
0.23527101 1.16930795 1.87834001 -0.061000 -0.994849 0.080963
0.23603600 1.17579401 2.03630400 -0.136781 -0.987860 -0.073651
0.24453799 1.16448796 2.22237396 0.132481 -0.989577 0.056449
0.25551400 1.16344702 2.19556594 0.155693 -0.987570 0.021592
0.25969201 1.17916799 2.05453897 -0.035565 -0.996909 -0.070053
0.23989201 1.17883503 2.02411294 -0.113430 -0.991085 -0.069892
0.15715800 1.19768906 2.09120297 -0.094895 -0.955449 -0.279485
0.23114701 1.17295098 2.12754798 -0.027308 -0.995100 -0.095031
0.25580400 1.17604804 2.53376889 0.206497 -0.976937 0.054341
0.25341800 1.16651297 2.25426793 0.166337 -0.985228 0.040712
0.25988600 1.17760503 2.51493001 0.212576 -0.973373 0.085776
0.20086201 1.16948199 2.56776595 0.021481 -0.999388 0.027619
0.18786600 1.17454505 2.59612608 0.004994 -0.999843 0.016980
0.21938200 1.16296196 2.44559789 0.060317 -0.997882 0.024339
0.22468300 1.17240298 2.54974508 0.134677 -0.990268 0.035084
0.20087300 1.16422999 2.49773312 0.039956 -0.996733 0.070192
0.21890400 1.16798604 2.28469396 0.167823 -0.984642 -0.048117
0.20220201 1.17340600 2.63051295 0.032484 -0.998636 0.040868
0.20368101 1.17383802 2.64243197 0.045605 -0.998013 0.043484
0.15576801 1.16876400 2.44336700 -0.101947 -0.994785 -0.003219
0.16647300 1.17037404 2.45430994 -0.059453 -0.998187 0.009387
0.17919999 1.17169201 2.52815294 -0.024723 -0.996438 0.080618
0.14438200 1.17013705 2.53026605 -0.067810 -0.994914 0.074480
0.15803000 1.17396796 2.64304709 0.012985 -0.999875 0.008990
0.11591100 1.17976296 2.55934906 -0.046388 -0.998880 -0.009278
0.14597000 1.16308105 2.46905303 -0.129333 -0.991551 0.009949
0.15280600 1.16589999 2.45284700 -0.109244 -0.994010 -0.003245
0.14622600 1.16164804 2.45626903 -0.133681 -0.991009 -0.005524
0.20544100 1.17533803 2.60736108 0.038538 -0.998861 0.028122
0.23434500 1.16434205 2.28176689 0.186703 -0.982219 -0.019714
0.23090100 1.17413700 2.51880908 0.168812 -0.982939 0.073032
0.23699901 1.17688298 2.50181890 0.167146 -0.982435 0.082972
0.24780200 1.16388798 2.24873090 0.161068 -0.986110 0.040557
0.21905200 1.16770506 2.29634404 0.176591 -0.983527 -0.038593
0.25966501 1.16579294 2.15306497 0.145176 -0.989221 -0.019132
0.20703501 1.16198003 2.48846292 0.049104 -0.996272 0.070928
0.18637700 1.17491806 2.12252212 -0.130192 -0.965486 -0.225581
0.19041499 1.17927694 2.11473703 -0.159640 -0.959157 -0.233522
0.23441900 1.18411100 2.00104094 -0.141108 -0.989979 -0.005555
0.29101300 1.17828906 1.91292500 0.115481 -0.993134 0.018697
0.25299400 1.18458295 1.99979496 -0.081212 -0.996692 -0.003164
0.25181100 1.18233395 1.95484400 -0.081300 -0.996194 0.031436
0.23166600 1.17539096 1.90141499 -0.087195 -0.993122 0.078136
0.17721000 1.17754304 2.10931492 -0.171943 -0.949071 -0.264007
0.18650900 1.18192804 2.09648895 -0.193402 -0.950782 -0.242091
0.21985200 1.18097603 1.94670796 -0.118740 -0.990266 0.072627
0.20093100 1.17988098 2.01653695 -0.213591 -0.976917 -0.003501
0.18638800 1.18986201 2.06813788 -0.261669 -0.951402 -0.162369
0.19535200 1.18311405 1.94317603 -0.138275 -0.986833 0.083910
0.20323600 1.18455601 1.94801700 -0.135350 -0.987464 0.081210
0.22129500 1.16992497 1.92049599 -0.104535 -0.991358 0.079263
0.17579401 1.18500602 1.93899405 -0.143948 -0.983444 0.110078
0.19671600 1.16020894 2.18232203 -0.019669 -0.998991 -0.040374
0.19523300 1.15926301 2.18692708 -0.027675 -0.999385 -0.021525
0.15468501 1.18735003 1.93331695 -0.134043 -0.980111 0.146340
0.11134200 1.20648897 2.03324199 0.150930 -0.980432 -0.126389
0.24869700 1.18483698 1.95029199 -0.088886 -0.995301 0.038407
0.24377500 1.18619704 1.94783199 -0.096235 -0.994423 0.043140
0.22361501 1.18339097 1.94130099 -0.110916 -0.991379 0.069751
0.25766900 1.16731298 1.89284205 -0.013614 -0.997997 0.061786
0.26012400 1.17620206 2.02136707 -0.039562 -0.997609 -0.056670
0.25712401 1.17221797 2.46470499 0.193699 -0.978242 0.074312
0.12979800 1.17785501 2.51951694 -0.115727 -0.991131 0.065312
0.12930000 1.18115902 2.53674889 -0.090490 -0.995395 0.031617
0.14871100 1.17063999 2.53402400 -0.058541 -0.995200 0.078423
0.05474300 1.18065500 2.53531194 -0.116755 -0.991850 -0.051009
0.03913200 1.17854798 2.50030398 -0.171641 -0.984311 -0.040867
0.15131800 1.17358696 2.42706800 -0.128771 -0.991644 -0.007704
0.12468400 1.17950797 2.52223396 -0.114247 -0.992029 0.053165
0.11349100 1.16770005 2.60435510 0.005083 -0.999279 -0.037613
0.12708300 1.16567302 2.33026791 0.003301 -0.991385 0.130938
0.12002600 1.17071497 2.24280500 -0.027397 -0.975568 -0.217984
0.14625500 1.16429806 2.44041991 -0.132081 -0.991164 -0.012209
0.08236500 1.17508495 2.62742901 0.001011 -0.999443 -0.033348
0.09371400 1.16683197 2.61672592 0.015466 -0.999072 -0.040210
0.06393400 1.18229496 2.56147194 -0.081142 -0.994826 -0.061135
0.09364700 1.17215598 2.62843108 0.015344 -0.999379 -0.031710
0.03486600 1.17714906 2.52924299 -0.174327 -0.983109 -0.055737
0.06150700 1.16316402 2.25792503 -0.144431 -0.964175 -0.222502
0.08909200 1.17294800 2.60404611 0.011362 -0.998854 -0.046482
0.03031200 1.18457794 2.48804903 -0.189379 -0.981749 -0.017428
0.02742400 1.18577802 2.21043801 -0.162130 -0.981314 -0.103617
0.04322100 1.17230594 2.25930309 -0.144415 -0.970006 -0.195535
0.05013100 1.17399299 2.25155497 -0.135076 -0.973303 -0.185571
0.02801900 1.18514299 2.25874090 -0.143183 -0.977383 -0.155634
0.03721100 1.18414903 2.25331807 -0.121509 -0.980662 -0.153420
0.09785900 1.17080402 2.60643911 0.013429 -0.998923 -0.044420
0.00666800 1.17160702 2.21979690 -0.181653 -0.977468 -0.107509
0.02997600 1.18638802 2.18965912 -0.212622 -0.974620 -0.070055
0.04468500 1.18422103 2.18689203 -0.193037 -0.979572 -0.056352
0.03994100 1.17853403 2.17969704 -0.203641 -0.976746 -0.067067
0.10252800 1.18912804 2.07979608 0.103962 -0.963896 -0.245145
0.07007700 1.17197597 2.10209894 -0.112924 -0.982315 -0.149351
0.14008000 1.19472694 1.96301103 -0.127273 -0.983029 0.132121
0.03743400 1.18844497 1.91618502 -0.118421 -0.992741 -0.021028
0.01257600 1.19051397 2.02516794 -0.217492 -0.975743 -0.024958
0.04757300 1.18621898 2.05964398 -0.098910 -0.992515 -0.071625
0.04136600 1.18402600 2.13634801 -0.333937 -0.933659 -0.129486
0.08807300 1.17403102 2.09171104 0.022205 -0.980518 -0.195169
0.05183000 1.18796897 2.07149410 -0.107275 -0.990851 -0.081898
0.06844200 1.17358398 2.02864909 0.074337 -0.991545 -0.106360
0.08101600 1.18493903 1.90590596 -0.059453 -0.998187 0.009387
0.15035699 1.18362498 1.92273498 -0.113152 -0.981869 0.152086
0.15187600 1.18230295 1.91855705 -0.113423 -0.981781 0.152450
0.12683199 1.19408500 1.93247402 -0.050362 -0.984984 0.165140
0.13130000 1.21021295 2.05492091 0.082162 -0.977360 -0.194981
0.13158201 1.21210504 2.07245994 0.109910 -0.960745 -0.254733
0.17272300 1.19639099 1.97088897 -0.197080 -0.975485 0.097920
0.17177500 1.19445300 1.97850704 -0.207273 -0.974306 0.088122
0.05704100 1.19734895 2.00307608 0.011385 -0.998751 -0.048644
0.05636500 1.20380795 2.00335693 0.005123 -0.999016 -0.044059
0.18909299 1.18242502 1.94320595 -0.138570 -0.986571 0.086458
0.14156500 1.18096495 1.88945103 -0.101599 -0.989133 0.106270
0.07269600 1.18979394 1.88665700 -0.101928 -0.993514 -0.050404
0.09281900 1.18126297 2.05231810 0.151829 -0.970939 -0.185002
0.09515400 1.18271995 2.04310608 0.162732 -0.969988 -0.180671
0.11191700 1.21018600 2.01150298 0.089260 -0.995081 -0.042977
0.06510500 1.19320798 1.95991802 0.053538 -0.998322 0.022045
0.07778300 1.17313504 2.21915889 -0.121803 -0.989507 -0.077722
0.10049400 1.19998300 2.04981995 0.145819 -0.972553 -0.181323
0.16385400 1.19177401 1.92643499 -0.133539 -0.981327 0.138439
0.14112800 1.19103396 1.95154297 -0.121015 -0.981569 0.147908
0.15829401 1.18802905 1.94753003 -0.170505 -0.976983 0.128190
0.13139300 1.19577396 1.94615400 -0.070484 -0.983188 0.168444
0.13687700 1.17804205 1.80302000 -0.205128 -0.978211 0.032014
0.10596500 1.18949699 1.82977200 -0.196990 -0.980288 0.015153
0.09482000 1.18661201 1.86224496 -0.149329 -0.988308 -0.030778
0.08825300 1.18926001 1.86309004 -0.143856 -0.988580 -0.044883
0.10484900 1.18178999 1.70748794 -0.231239 -0.972173 0.037531
0.14068300 1.18287206 1.71909404 -0.218279 -0.975766 0.015339
0.13269500 1.18015897 1.88695002 -0.111384 -0.990971 0.074639
0.09873400 1.18490696 1.74701905 -0.234931 -0.971923 0.013118
0.11820500 1.18193305 1.81258202 -0.212449 -0.976791 0.027298
0.09213800 1.19724596 1.82028902 -0.219533 -0.975570 -0.008218
0.08665200 1.18541706 1.69017994 -0.218282 -0.974342 0.054875
0.10512100 1.18255496 1.67309999 -0.194526 -0.979792 0.046543
0.10086600 1.17930102 1.63674402 -0.157421 -0.987044 0.031025
0.09874000 1.18445694 1.62761998 -0.160364 -0.986410 0.035765
0.10254600 1.18090403 1.64626300 -0.163713 -0.985764 0.038316
0.09739800 1.18237698 1.67441595 -0.206524 -0.977062 0.051933
0.08625800 1.18673205 1.62583697 -0.169384 -0.985194 0.026502
0.04535900 1.19179797 1.60467899 -0.190229 -0.981489 0.022174
0.00479600 1.20153999 1.84255898 -0.000991 -0.999917 -0.012883
0.10444800 1.19530201 1.92011297 -0.049024 -0.990748 0.126551
0.04938500 1.19562399 1.68226004 -0.178152 -0.980443 0.083622
0.01068400 1.19793999 1.87363303 -0.133227 -0.990807 -0.023511
0.07147100 1.20103002 1.83887804 -0.177014 -0.982485 -0.058213
0.04721900 1.19748902 1.85562694 -0.126491 -0.987103 -0.098119
0.02541300 1.20970798 1.78329897 -0.015587 -0.998581 -0.050916
0.06803000 1.18819702 1.73292005 -0.201039 -0.979329 0.022338
0.06418700 1.18626797 1.62645996 -0.186949 -0.981778 0.034098
0.08024600 1.18292296 1.67227697 -0.217866 -0.973628 0.067699
0.03604600 1.20155394 1.69170797 -0.192581 -0.977624 0.084637
0.03354600 1.19461799 1.66187203 -0.197772 -0.976577 0.084759
0.03511700 1.19237196 1.65331697 -0.188482 -0.978891 0.079041
0.08559800 1.17980397 1.43952203 -0.149555 -0.984673 0.089733
0.05881600 1.18617702 1.60240602 -0.173112 -0.984789 0.014904
0.07013400 1.18412697 1.53302598 -0.163803 -0.986253 0.021764
0.06633500 1.18261003 1.50118506 -0.152949 -0.986577 0.057210
0.06167600 1.18596995 1.48772597 -0.153969 -0.986110 0.062293
0.06324300 1.17681098 1.45324504 -0.145899 -0.985708 0.084218
0.06184300 1.18613803 1.54264104 -0.175046 -0.984199 0.026663
0.06790400 1.17982197 1.44147396 -0.141222 -0.986180 0.086632
0.04809900 1.18660796 1.51707304 -0.179338 -0.982203 0.055820
0.05654900 1.18763804 1.50524497 -0.161261 -0.985225 0.057677
0.11014900 1.18073404 1.52265096 -0.198782 -0.979960 -0.012787
0.09317500 1.17911601 1.45616996 -0.159677 -0.983271 0.087642
0.08154500 1.17973101 1.48670304 -0.143127 -0.987924 0.059345
0.08687500 1.18193996 1.60282004 -0.189232 -0.981420 0.031735
0.10012200 1.17886496 1.59004402 -0.209754 -0.976854 0.041951
0.17991400 1.17380404 1.61338794 -0.179983 -0.976873 0.115437
0.11526400 1.17949402 1.50182700 -0.181796 -0.983090 0.022001
0.10771300 1.17922401 1.57951105 -0.224583 -0.973992 0.030024
0.06200900 1.18555796 1.50965905 -0.160188 -0.985683 0.052617
0.17233200 1.16470206 1.49016201 -0.178186 -0.983996 0.001135
0.14221901 1.17289197 1.50259399 -0.221040 -0.975178 -0.013002
0.16166100 1.17418694 1.60289204 -0.207847 -0.975280 0.075022
0.18859801 1.16833103 1.63912499 -0.158335 -0.984533 0.075001
0.15213200 1.17568302 1.60480106 -0.214518 -0.973389 0.080599
0.13872500 1.17734206 1.60942197 -0.219814 -0.972399 0.078239
0.15090300 1.18076599 1.53961599 -0.254770 -0.966663 -0.025599
0.14091399 1.17742097 1.84221697 -0.187784 -0.981437 0.038974
0.14267001 1.17674100 1.61405301 -0.218323 -0.971848 0.088577
0.16704001 1.18171895 1.91119099 -0.127273 -0.983029 0.132121
0.12052700 1.18691397 1.70578301 -0.217671 -0.975310 0.037281
0.14932300 1.17630696 1.81588197 -0.180080 -0.982789 0.041195
0.15135600 1.17596495 1.80407298 -0.175811 -0.983845 0.033765
0.16275699 1.17386997 1.62932801 -0.191796 -0.976304 0.100229
0.22719300 1.17210805 1.87516201 -0.068925 -0.993204 0.093784
0.25055701 1.17654598 1.40036798 0.185320 -0.979897 -0.073886
0.26714301 1.17743099 1.96275795 -0.040785 -0.998708 0.030327
0.21969500 1.18117797 1.98699605 -0.157076 -0.987171 0.028663
0.25418901 1.17768097 1.96572006 -0.067199 -0.997324 0.028800
0.23570700 1.18140197 1.96332800 -0.125198 -0.991433 0.037221
0.14984800 1.19516599 2.09654808 -0.023622 -0.956075 -0.292169
0.14715900 1.18067801 1.88306403 -0.101181 -0.989709 0.101181
0.19990300 1.18185198 1.92936504 -0.129390 -0.986447 0.100900
0.14472900 1.17935002 1.90634596 -0.088809 -0.986367 0.138541
0.15572700 1.18400896 1.88181400 -0.114721 -0.987550 0.107625
0.17327300 1.18734801 1.95539701 -0.167272 -0.980433 0.103782
0.15000300 1.20365798 2.01663399 -0.101283 -0.993910 0.043407
0.16625901 1.19523394 2.03242612 -0.203303 -0.978912 -0.019978
0.17374399 1.19480896 1.98882401 -0.213095 -0.974325 0.072674
0.16383401 1.19909799 2.00974202 -0.193921 -0.979240 0.059019
0.15113001 1.19899201 1.99302399 -0.145425 -0.987726 0.057007
