-11.07173538 0.90513903 -1.73443699 -0.998206 0.053758 0.026352
-11.07162666 0.87708700 -1.74312401 -0.998212 -0.041196 0.043309
-11.06463337 0.90213400 -1.65594196 -0.996146 0.071075 0.051393
-11.07670021 0.88631600 -1.80650795 -0.997878 -0.032874 0.056204
-11.06393147 0.89828002 -1.59950495 -0.991941 0.110216 0.062493
-11.07056141 0.88675302 -1.72731698 -0.998849 -0.017633 0.044601
-11.06511116 0.83551699 -1.83870697 -0.928444 -0.358133 0.098656
-11.05853653 0.80667400 -1.90840304 -0.872392 -0.488806 0.001332
-11.07730389 0.87563699 -1.81288898 -0.995928 -0.083628 0.033668
-11.07588005 0.86645198 -1.81475198 -0.992396 -0.120862 0.023285
-11.07232285 0.85067898 -1.77760196 -0.980816 -0.190484 0.041410
-11.07754517 0.87218601 -1.79256499 -0.997429 -0.061067 0.037497
-11.07111454 0.85466599 -1.82291996 -0.976344 -0.212562 0.039630
-11.06944561 0.85626400 -1.77277803 -0.989209 -0.137038 0.051821
-11.06756973 0.84340799 -1.83553600 -0.946588 -0.309385 0.090841
-11.06986904 0.89941698 -1.74567294 -0.998922 0.038460 0.025987
-11.07262325 0.85900700 -1.79399800 -0.990019 -0.138535 0.025905
-11.07448196 0.86575103 -1.79218197 -0.994477 -0.099997 0.031867
-11.06426907 0.86302900 -1.58845496 -0.999409 -0.029665 0.017390
-11.06941128 0.87252402 -1.70401394 -0.996392 -0.070782 0.046825
-11.06819725 0.86805099 -1.70711803 -0.994962 -0.089447 0.045276
-11.06949139 0.89067900 -1.70380902 -0.999071 -0.009241 0.042099
-11.07134247 0.86638999 -1.77709794 -0.994497 -0.081480 0.065853
-11.06644440 0.85122401 -1.68738699 -0.985492 -0.160538 0.055075
-11.06497288 0.84609699 -1.72315800 -0.973948 -0.220631 0.052415
-11.06445599 0.83387297 -1.72050095 -0.963072 -0.266487 0.038424
-11.06081581 0.84181398 -1.66285801 -0.976131 -0.214389 0.034733
-11.06317806 0.85429603 -1.64950597 -0.991334 -0.128817 0.025763
-11.04986858 0.80846697 -1.61746502 -0.906345 -0.422438 -0.009155
-11.06760216 0.85446799 -1.71553695 -0.982616 -0.178550 0.050845
-11.06760406 0.86037803 -1.72033703 -0.988671 -0.139917 0.054348
-11.06520367 0.84016901 -1.72367001 -0.968951 -0.242546 0.048017
-11.06742096 0.86510998 -1.69975102 -0.993528 -0.103935 0.045821
-11.06520557 0.85302299 -1.72260499 -0.984062 -0.168933 0.055523
-11.06272602 0.83747202 -1.69335997 -0.962221 -0.268324 0.046177
-11.06435204 0.84585297 -1.68985200 -0.977526 -0.202288 0.059354
-11.06400013 0.83902103 -1.69576001 -0.967895 -0.247201 0.045505
-11.06636047 0.85304701 -1.73127198 -0.983667 -0.171227 0.055501
-11.06296158 0.84577799 -1.63937104 -0.981268 -0.192564 -0.005765
-11.06362724 0.85850298 -1.59130502 -0.998670 -0.050710 0.009314
-11.06595612 0.85392803 -1.69784606 -0.985492 -0.160538 0.055075
-11.06300354 0.87545002 -1.60580897 -0.999211 0.023668 0.031901
-11.06539917 0.86501098 -1.64852500 -0.995928 -0.083628 0.033668
-11.06310654 0.85301900 -1.65992200 -0.990098 -0.135272 0.037512
-11.06571865 0.86014301 -1.66082597 -0.993250 -0.108375 0.041339
-11.06474304 0.84838700 -1.60266304 -0.992313 -0.123629 -0.005470
-11.06785488 0.87358302 -1.66435301 -0.997340 -0.052605 0.050457
-11.06614017 0.85522002 -1.72754705 -0.986114 -0.157545 0.052515
-11.06862831 0.88590699 -1.70326900 -0.998687 -0.028176 0.042786
-11.06921864 0.89758497 -1.70924199 -0.998749 0.026036 0.042699
-11.06724358 0.85924798 -1.70776904 -0.988895 -0.139297 0.051805
-11.06457233 0.86600298 -1.49171996 -0.999658 0.025168 0.007047
-11.06518459 0.86985999 -1.49223399 -0.999050 0.042098 0.011294
-11.06354141 0.86898202 -1.56927705 -0.999372 0.011206 0.033618
-11.06521702 0.86726999 -1.57818496 -0.999730 0.003008 0.023063
-11.06602859 0.87043202 -1.64866996 -0.997914 -0.054200 0.035070
-11.06199455 0.84096199 -1.59235406 -0.983447 -0.181191 0.001140
-11.06820393 0.88032502 -1.68544304 -0.998656 -0.021914 0.046959
-11.06618023 0.85525799 -1.70775795 -0.986317 -0.159158 0.042984
-11.06914806 0.88075000 -1.71526694 -0.997764 -0.041618 0.052289
-11.06757355 0.84714699 -1.73037601 -0.978236 -0.200941 0.051739
-11.06553841 0.85007298 -1.73382103 -0.981085 -0.186703 0.051135
-11.06358433 0.84601700 -1.58538198 -0.990185 -0.139227 0.012252
-11.06259346 0.84073400 -1.62094998 -0.975568 -0.217984 -0.027397
-11.06384945 0.87053400 -1.61104500 -0.999686 0.001001 0.025017
-11.06131458 0.82865798 -1.67592502 -0.950134 -0.309964 0.034159
-11.06052017 0.82764900 -1.68439901 -0.947442 -0.318351 0.031708
-11.06049728 0.83392400 -1.67129099 -0.960277 -0.277027 0.033541
-11.06576920 0.88826799 -1.66238499 -0.998341 0.015681 0.055405
-11.06640244 0.84236002 -1.72726703 -0.972209 -0.228683 0.050139
-11.06695557 0.83936000 -1.73562205 -0.967074 -0.247681 0.058497
-11.06348896 0.83537000 -1.72527099 -0.960840 -0.273633 0.043731
-11.06285286 0.85692102 -1.54065001 -0.998380 -0.053317 0.019863
-11.05672741 0.82495898 -1.64220500 -0.946925 -0.321433 0.003723
-11.06245995 0.83491802 -1.60512400 -0.972055 -0.234388 -0.013088
-11.06191158 0.84288901 -1.56327701 -0.988312 -0.150913 0.021559
-11.05574417 0.81987000 -1.62946904 -0.936420 -0.350361 -0.019111
-11.05257130 0.81178802 -1.52978003 -0.929088 -0.369856 -0.001271
-11.04892540 0.80537999 -1.59559596 -0.901862 -0.432006 -0.003915
-11.05765629 0.82773203 -1.65852904 -0.944548 -0.327494 0.024025
-11.03501606 0.77807802 -1.60370302 -0.856998 -0.515275 -0.006727
-11.03717422 0.78356600 -1.59995198 -0.869293 -0.494251 -0.006697
-11.05661201 0.82788002 -1.53869104 -0.964225 -0.264950 0.008469
-11.05880356 0.83027500 -1.54096997 -0.968557 -0.248440 0.013202
-11.05621910 0.82274997 -1.61919999 -0.942674 -0.333523 -0.011327
-11.05698681 0.82498902 -1.60359204 -0.948148 -0.317710 -0.008721
-11.05735493 0.82043499 -1.69640601 -0.934570 -0.355111 0.021794
-11.04798317 0.79637402 -1.75801098 -0.862450 -0.505480 0.025887
-11.04514217 0.79774302 -1.78655005 -0.871981 -0.489226 0.017520
-11.05296803 0.81625801 -1.63524401 -0.924606 -0.380871 -0.006412
-11.05792522 0.82548898 -1.66988206 -0.942412 -0.333586 0.024099
-11.05454445 0.80549198 -1.78999305 -0.888805 -0.458269 0.003962
-11.06104755 0.82932800 -1.69738400 -0.952966 -0.300870 0.036507
-11.07196331 0.83389002 -1.88690495 -0.925029 -0.375586 0.057068
-11.05915642 0.82197797 -1.82163095 -0.917471 -0.396211 0.035541
-11.06061554 0.82661903 -1.81395102 -0.922487 -0.385767 0.014192
-11.05369854 0.80864799 -1.76453304 -0.885942 -0.461343 0.047631
-11.05619240 0.81629801 -1.74620402 -0.912310 -0.407685 0.038511
-11.05959892 0.81696099 -1.85260797 -0.899069 -0.425141 0.104543
-11.06709671 0.83033699 -1.85067296 -0.919974 -0.372140 0.123124
-11.07026958 0.83653700 -1.84430504 -0.931113 -0.344907 0.118604
-11.06167984 0.82072598 -1.96406305 -0.880290 -0.474208 -0.014694
-11.06131077 0.82843000 -1.84210503 -0.919179 -0.379452 0.105480
-11.05842876 0.80342799 -1.87948203 -0.869176 -0.488474 0.076980
-11.06246185 0.81796998 -1.85857105 -0.895268 -0.431471 0.111030
-11.05744839 0.81280798 -1.85665905 -0.888314 -0.447665 0.102444
-11.07217026 0.84869403 -1.82599497 -0.962959 -0.264219 0.053846
-11.05000496 0.80553299 -1.82202399 -0.905527 -0.422757 0.036008
-11.06384277 0.83896899 -1.81604302 -0.940679 -0.338236 0.026804
-11.06074142 0.82160503 -1.83292699 -0.914568 -0.396990 0.077230
-11.06338882 0.82786900 -1.78248203 -0.931838 -0.362873 0.001264
-11.04931259 0.79883599 -1.72849798 -0.882186 -0.470050 0.028284
-11.06661224 0.83961898 -1.77062905 -0.963566 -0.263017 0.048615
-11.06509399 0.83399302 -1.75149906 -0.953785 -0.294946 0.057457
-11.05414772 0.80642498 -1.79603505 -0.893066 -0.449831 0.009234
-11.07192326 0.85819101 -1.80365503 -0.986817 -0.161644 0.007913
-11.07113457 0.85341603 -1.79955399 -0.979742 -0.199685 0.015181
-11.07206917 0.84381402 -1.77756405 -0.971517 -0.235337 0.027758
-11.07084656 0.84202099 -1.79489696 -0.958645 -0.284540 0.006106
-11.05994892 0.82830697 -1.82007396 -0.922987 -0.384035 0.024734
-11.06898117 0.85412902 -1.75871301 -0.987250 -0.139694 0.076304
-11.07347584 0.85752398 -1.78741503 -0.988823 -0.144845 0.035356
-11.06739902 0.85176098 -1.81068599 -0.970628 -0.240583 0.001185
-11.06387234 0.82566398 -1.79150701 -0.924606 -0.380871 -0.006412
-11.06650162 0.83330798 -1.80429697 -0.936167 -0.351535 0.003780
-11.06717491 0.84332401 -1.74084401 -0.972215 -0.225495 0.062843
-11.06531811 0.83708000 -1.82616198 -0.936361 -0.347717 0.048185
-11.06928444 0.84556502 -1.80795896 -0.961563 -0.274560 0.003629
-11.07468796 0.86114597 -1.85705304 -0.977728 -0.155689 0.140743
-11.07291031 0.85335201 -1.79396296 -0.983583 -0.178093 0.029100
-11.07258129 0.84968698 -1.79667699 -0.974395 -0.224313 0.015429
-11.07161045 0.85644299 -1.79501498 -0.985576 -0.167144 0.026513
-11.06859970 0.84568799 -1.75979400 -0.973463 -0.217829 0.070148
-11.07040501 0.84679800 -1.82914400 -0.958190 -0.278677 0.064897
-11.07536697 0.87840199 -1.82178605 -0.995632 -0.086150 0.035987
-11.07383347 0.84826100 -1.79099095 -0.975341 -0.219778 0.020196
-11.06898403 0.84765798 -1.83355606 -0.956790 -0.277611 0.086511
-11.08488178 0.87260503 -1.87447703 -0.993043 -0.034550 0.112567
-11.07396221 0.85438001 -1.78951204 -0.984737 -0.172012 0.026552
-11.06864929 0.85496098 -1.76609802 -0.989155 -0.128718 0.070737
-11.07014275 0.86212301 -1.75037098 -0.994169 -0.081636 0.070453
-11.06902027 0.84963202 -1.81835699 -0.966118 -0.257063 0.023148
-11.07291603 0.85120898 -1.83719397 -0.960642 -0.257292 0.104727
-11.07150745 0.84420401 -1.82547998 -0.954508 -0.293597 0.052110
-11.07513714 0.85376298 -1.85406005 -0.962642 -0.230565 0.141986
-11.07212353 0.84614801 -1.82686102 -0.959450 -0.276110 0.056735
-11.06746006 0.83780098 -1.77831602 -0.960215 -0.278054 0.025952
-11.06808281 0.84411001 -1.73248994 -0.973036 -0.223982 0.055077
-11.05636215 0.81360400 -1.83280301 -0.904693 -0.420376 0.069382
-11.05858135 0.81393099 -1.79844999 -0.908750 -0.417323 0.003900
-11.06503773 0.82349902 -1.87957299 -0.894252 -0.439501 0.084573
-11.06524467 0.82435399 -1.88824797 -0.894346 -0.445143 0.044650
-11.07364178 0.82832599 -1.87162805 -0.910447 -0.394574 0.124088
-11.06782246 0.82740498 -1.85751796 -0.914355 -0.385504 0.123862
-11.06014633 0.81056601 -2.11169291 -0.876583 -0.480707 -0.022891
-11.06180954 0.81696999 -2.14322400 -0.882903 -0.469000 -0.022845
-11.06310940 0.82346100 -2.13620400 -0.888565 -0.458313 -0.020043
-11.05718517 0.81828803 -2.22875690 -0.837151 -0.546683 -0.017812
-11.06725311 0.82639199 -2.02150893 -0.890920 -0.454065 -0.009267
-11.06596661 0.82388097 -2.22347593 -0.840421 -0.541544 -0.020565
-11.03736877 0.77741098 -2.12160110 -0.769772 -0.637004 -0.040960
-11.05777264 0.80713999 -2.06529903 -0.859609 -0.510937 0.004023
-11.04754925 0.79454303 -2.07018089 -0.805029 -0.593107 0.012385
-11.04989910 0.80590600 -1.81870794 -0.906171 -0.421998 0.027780
-11.05540562 0.79786098 -1.88316202 -0.864895 -0.498391 0.059696
-11.05799389 0.80408698 -1.89475298 -0.869476 -0.493559 0.020283
-11.06747723 0.82566202 -1.92930698 -0.892577 -0.449644 -0.033556
-11.05797577 0.80996299 -2.05997992 -0.861485 -0.507781 0.001340
-11.06553173 0.82460999 -1.97684395 -0.887066 -0.461487 -0.011969
-11.06664753 0.82388902 -1.99446595 -0.884423 -0.466669 -0.003966
-11.07000828 0.83238602 -1.98594999 -0.902381 -0.430890 -0.006548
-11.06232262 0.81345803 -1.94025195 -0.869605 -0.490795 -0.053918
-11.05810165 0.81059998 -1.96999502 -0.862809 -0.505224 -0.017608
-11.06101608 0.81741101 -2.00886798 -0.875754 -0.482667 -0.009359
-11.05266571 0.79618102 -1.94034398 -0.858188 -0.510462 -0.054245
-11.05769825 0.80393398 -1.99317300 -0.856263 -0.516454 0.009439
-11.04337692 0.78016698 -2.00737500 -0.810370 -0.585190 -0.029190
-11.04323769 0.78544903 -2.00397396 -0.820027 -0.571952 -0.020673
-11.04656029 0.79342300 -2.14337206 -0.809879 -0.584522 -0.049297
-11.06435680 0.82664597 -2.12835908 -0.892505 -0.450880 -0.011900
-11.05112839 0.79795998 -2.14703107 -0.824426 -0.564081 -0.046190
-11.05856514 0.80710101 -2.11365199 -0.871516 -0.490144 -0.014771
-11.06534672 0.82360601 -2.21716499 -0.844534 -0.535459 -0.006778
-11.06286144 0.81742603 -2.07007504 -0.870830 -0.491272 0.017497
-11.05351734 0.80710602 -2.19685197 -0.828995 -0.558641 -0.026208
-11.06434727 0.82091898 -2.01535702 -0.885403 -0.464670 -0.011983
-11.05128384 0.80651700 -2.18999696 -0.829348 -0.557975 -0.029076
-11.06986713 0.83187097 -2.01664305 -0.900329 -0.435049 -0.011829
-11.07161617 0.83586401 -2.08296490 -0.915375 -0.402348 -0.014323
-11.06530190 0.81744599 -2.11249089 -0.890157 -0.455088 -0.022688
-11.06552029 0.82541901 -2.24061489 -0.848828 -0.528668 0.001345
-11.07424355 0.83821499 -2.24561810 -0.878751 -0.477264 0.003988
-11.06484509 0.82891101 -2.14058709 -0.894407 -0.446537 -0.025326
-11.06903267 0.83177102 -2.23620701 -0.859778 -0.510451 -0.014894
-11.06791496 0.83106601 -2.24662995 -0.859031 -0.511619 0.017642
-11.06981468 0.83616400 -2.19369102 -0.891737 -0.450605 0.041948
-11.05257034 0.80712801 -2.12745500 -0.862391 -0.506098 -0.012146
-11.05243778 0.80038100 -2.10895109 -0.842925 -0.537892 -0.012256
-11.05725479 0.81428897 -2.25990200 -0.827377 -0.560391 0.037545
-11.06890965 0.83832401 -2.17570806 -0.904679 -0.425186 0.027816
-11.04771709 0.79272902 -2.13097191 -0.815118 -0.578246 -0.034834
-11.07187271 0.84343702 -2.25916600 -0.892424 -0.450867 0.017290
-11.06648445 0.83088797 -2.18528795 -0.886686 -0.461507 0.028256
-11.07273197 0.83880299 -2.23234510 -0.891465 -0.452996 -0.009245
-11.06431293 0.82240999 -2.24926591 -0.847108 -0.530304 0.034435
-11.07061195 0.83774501 -2.14604092 -0.897830 -0.438849 -0.036235
-11.06573296 0.83361799 -2.12675905 -0.894125 -0.447723 -0.009245
-11.07447433 0.84978801 -2.21870804 -0.915302 -0.402000 0.024879
-11.07151222 0.84868097 -2.22078896 -0.910683 -0.412755 0.017034
-11.08428764 0.93456900 -1.99743104 -0.987910 0.145110 0.054561
-11.07802963 0.93713999 -1.99414802 -0.987158 0.144034 0.069089
-11.06933022 0.83384699 -2.23883700 -0.862391 -0.506098 -0.012146
-11.07141495 0.82984602 -2.20211196 -0.880142 -0.473297 0.036616
-11.07372189 0.82963002 -2.19630289 -0.881271 -0.471188 0.036663
-11.06872463 0.83449799 -2.25071406 -0.862019 -0.506351 0.023078
-11.06641102 0.83141601 -2.25410295 -0.855857 -0.516253 0.031496
-11.06736755 0.83822298 -2.20963001 -0.891024 -0.452903 0.030910
-11.07281399 0.83208603 -2.19941902 -0.886741 -0.460345 0.042096
-11.06016254 0.81228298 -2.20451593 -0.832618 -0.553711 -0.012305
-11.02289677 0.76592797 -2.19238305 -0.697264 -0.716748 -0.009742
-11.01870060 0.76578701 -2.18416595 -0.690734 -0.721938 -0.041132
-11.06453514 0.82144701 -2.12234712 -0.892505 -0.450880 -0.011900
-11.05895519 0.80996603 -2.11641502 -0.876375 -0.481539 -0.009337
-11.06814003 0.82793802 -2.19320512 -0.877417 -0.478714 0.031191
-11.06304169 0.81814802 -2.09015989 -0.881999 -0.471022 -0.014678
-11.06286240 0.82351899 -2.17153192 -0.884928 -0.465682 0.006634
-11.05818176 0.81864101 -2.13096905 -0.887520 -0.460443 -0.017350
-11.06783581 0.83275700 -2.16225505 -0.898255 -0.439235 0.014509
-11.06869411 0.83789998 -2.13390207 -0.897054 -0.441196 -0.025325
-11.06520176 0.82609600 -2.18123388 -0.880322 -0.474225 0.012023
-11.06626892 0.82428098 -2.16159296 -0.889764 -0.456187 0.014630
-11.07557583 0.84190297 -2.05032396 -0.925729 -0.378186 -0.001273
-11.06270027 0.81500000 -1.88109100 -0.882855 -0.464296 0.070684
-11.07732105 0.84589303 -1.95675099 -0.918427 -0.393988 -0.035578
-11.07735538 0.84626901 -2.04230595 -0.929088 -0.369856 -0.001271
-11.07798576 0.84790999 -2.05020690 -0.943559 -0.331183 -0.003749
-11.08034039 0.85803503 -2.08757710 -0.962379 -0.271688 0.003623
-11.07256413 0.84110600 -2.05910206 -0.924094 -0.382163 -0.001278
-11.07379627 0.84523702 -1.99385202 -0.927111 -0.374681 -0.008951
-11.06836987 0.82471400 -2.00279593 -0.890316 -0.455109 -0.014595
-11.07288837 0.85918802 -1.81302404 -0.986194 -0.164934 0.014787
-11.07419205 0.86729902 -1.78633904 -0.994772 -0.093639 0.040760
-11.07312584 0.86546999 -1.80799401 -0.993456 -0.111364 0.025360
-11.07466984 0.86896801 -1.82736802 -0.991887 -0.116493 0.050895
-11.07241344 0.89618802 -1.82539499 -0.998831 -0.003080 0.048248
-11.07328892 0.91118801 -1.80197096 -0.992944 0.080387 0.087180
-11.07462406 0.90238601 -1.80767703 -0.994649 0.054456 0.087796
-11.06903553 0.92553401 -1.77752602 -0.990240 0.103078 0.093812
-11.07418823 0.88472199 -1.79080606 -0.997678 -0.005223 0.067905
-11.07049465 0.86463100 -1.76716602 -0.995059 -0.063231 0.076543
-11.07213497 0.87374097 -1.76708901 -0.995916 -0.042542 0.079630
-11.07017899 0.91682202 -1.78338397 -0.993137 0.080402 0.084932
-11.07537842 0.93470800 -1.83278406 -0.984269 0.138545 0.109631
-11.07160378 0.89775699 -1.81784403 -0.997892 0.011518 0.063873
-11.06944656 0.96371901 -1.83804297 -0.948822 0.295101 0.112482
-11.07374954 0.87291998 -1.74691200 -0.997077 -0.052933 0.055093
-11.07012558 0.91569000 -1.76498997 -0.995877 0.071369 0.055997
-11.07186794 0.86257601 -1.83054996 -0.983268 -0.170021 0.065393
-11.07060719 0.88547701 -1.75007999 -0.998581 -0.015587 0.050916
-11.07786846 0.86787301 -1.86779702 -0.988194 -0.080884 0.130118
-11.06972980 0.93304402 -1.78493500 -0.988890 0.124925 0.080559
-11.07082367 0.95065701 -1.82671499 -0.967368 0.232626 0.100423
-11.09005260 0.98142999 -2.13421202 -0.987103 0.100725 0.124425
-11.08350086 0.90622503 -2.06871891 -0.991244 0.097858 0.088648
-11.07404041 0.95818597 -1.93668401 -0.991779 0.127151 0.014374
-11.07801628 0.92922300 -1.98952997 -0.983663 0.167710 0.065419
-11.07656574 0.96411699 -1.94707799 -0.990592 0.126823 0.051415
-11.07813454 0.93320298 -1.89216602 -0.994381 0.105185 0.011928
-11.07822895 0.93812400 -1.88497603 -0.993961 0.106771 0.025317
-11.07277107 0.93488598 -1.93158603 -0.988388 0.147743 0.035504
-11.07624054 0.95628899 -1.91876495 -0.991048 0.133389 0.005512
-11.07364082 0.96475601 -1.92107499 -0.985312 0.170118 0.014842
-11.07803345 0.97470701 -2.06614208 -0.992852 0.073587 0.093964
-11.07625961 0.94868499 -1.97799802 -0.988702 0.124901 0.082878
-11.05845261 1.00626004 -1.91071498 -0.887676 0.445961 0.114676
-11.08104897 0.96402299 -2.02103400 -0.990532 0.136740 -0.012229
-11.07878685 0.95129102 -2.01919389 -0.992721 0.119830 -0.012093
-11.07222176 0.96730000 -1.93505299 -0.986742 0.160845 0.021674
-11.08021545 0.99068898 -2.10282207 -0.967251 0.161856 0.195522
-11.08780766 0.97351199 -2.19654989 -0.992858 -0.048350 0.109068
-11.07694244 0.97929001 -2.03937411 -0.988163 0.148052 0.040169
-11.06189537 1.01463795 -1.94019794 -0.885987 0.450765 0.108805
-11.07344246 0.96421099 -1.91064501 -0.984642 0.173490 0.019532
-11.07053947 0.96756202 -1.93172598 -0.984235 0.176775 0.005702
-11.06962490 0.97026098 -1.92719495 -0.983189 0.182412 0.008031
-11.07608318 0.93816698 -1.87521100 -0.991078 0.122031 0.053603
-11.06169987 0.96883500 -1.82130396 -0.938755 0.334986 0.080767
-11.06577492 0.96000302 -1.82418501 -0.956563 0.273860 0.099939
-11.06108761 0.97004801 -1.75790405 -0.911339 0.396896 0.109250
-11.06594753 0.96192002 -1.80009198 -0.955082 0.288448 0.067945
-11.07122707 0.92054600 -1.77269697 -0.992892 0.089644 0.078297
-11.06914520 0.94664001 -1.77921700 -0.974779 0.210198 0.074983
-11.06915665 0.92797399 -1.78221297 -0.990168 0.105633 0.091704
-11.06876755 0.92970198 -1.76712799 -0.993250 0.102131 0.054993
-11.06149960 0.97096300 -1.81641996 -0.934050 0.347770 0.081280
-11.06419563 0.94215399 -1.71263003 -0.959859 0.262250 0.099474
-11.06898212 0.95116299 -1.79647398 -0.969601 0.233353 0.073625
-11.06668377 0.96042901 -1.79382098 -0.956751 0.282299 0.070255
-11.06362438 0.95975000 -1.76693201 -0.941223 0.323504 0.097184
-11.07008553 0.97811902 -1.86612904 -0.931920 0.329969 0.150488
-11.06512833 0.98467600 -1.86267495 -0.913941 0.374334 0.156797
-11.06849480 0.94337702 -1.77256405 -0.979076 0.188518 0.076623
-11.06813431 0.91238701 -1.74214101 -0.996756 0.074192 0.031182
-11.03605747 0.97437799 -1.61623299 -0.804320 0.586150 0.097449
-11.02922726 0.98202300 -1.61347401 -0.751462 0.651463 0.104411
-11.06864262 0.92852402 -1.72387695 -0.986655 0.154929 0.050090
-11.06660366 0.93745798 -1.75292802 -0.984352 0.164651 0.062781
-11.06669331 0.93586898 -1.74654198 -0.983663 0.167710 0.065419
-11.06733227 0.91693097 -1.75290895 -0.996926 0.071899 0.031120
-11.06702709 0.92424500 -1.71587205 -0.985717 0.162148 0.045495
-11.05966854 0.95725203 -1.72599804 -0.927022 0.354651 0.121869
-11.06905746 0.91605300 -1.71900296 -0.994206 0.102621 0.032000
-11.06658840 0.92336899 -1.70856702 -0.984429 0.162295 0.067524
-11.05720520 0.96986902 -1.74720001 -0.891809 0.435271 0.123350
-11.04470253 0.96410799 -1.66153800 -0.865857 0.491739 0.092112
-11.06585121 0.91296703 -1.69118202 -0.992023 0.103644 0.071754
-11.05372143 0.96218199 -1.69953597 -0.894921 0.429844 0.119793
-11.06665039 0.90389001 -1.67139900 -0.996201 0.068741 0.053465
-11.05779076 0.92974198 -1.62010801 -0.961873 0.263022 0.074968
-11.06657887 0.91669297 -1.69826400 -0.990357 0.120775 0.067864
-11.06622887 0.91501802 -1.68070197 -0.989703 0.125878 0.068136
-11.04275894 0.97261101 -1.66622198 -0.839343 0.532019 0.111622
-11.06268120 0.93380302 -1.69626200 -0.966112 0.245622 0.079355
-11.06440353 0.91777498 -1.68745196 -0.987523 0.135036 0.081021
-11.05362606 0.96104503 -1.67841697 -0.889242 0.449492 0.084889
-11.05811214 0.94335198 -1.65316796 -0.938737 0.339097 0.061535
-11.04277802 0.95852500 -1.58481205 -0.861991 0.498449 0.092305
-11.04864120 0.95019603 -1.59135497 -0.901546 0.423851 0.086979
-11.05613327 0.93477899 -1.61967802 -0.951833 0.294770 0.084405
-11.05275822 0.94152600 -1.62184799 -0.937601 0.338173 0.080896
-11.06756210 0.88451701 -1.67507303 -0.998730 -0.003079 0.050296
-11.06855679 0.88148999 -1.67795300 -0.998726 -0.013454 0.048643
-11.06752586 0.89743698 -1.67341304 -0.997450 0.050463 0.050463
-11.05956459 0.90754497 -1.56506896 -0.981344 0.187766 0.041332
-11.06066036 0.90576202 -1.56937504 -0.983840 0.174307 0.040945
-11.06454086 0.90553403 -1.61681902 -0.990633 0.124543 0.055987
-11.06261444 0.90730101 -1.59487200 -0.986381 0.151300 0.064508
-11.06515408 0.88317800 -1.61633396 -0.998879 0.036455 0.030206
-11.06415081 0.91003001 -1.64552701 -0.990918 0.124292 0.051313
-11.06658745 0.89973599 -1.63277102 -0.996522 0.070483 0.044459
-11.06502438 0.91701800 -1.65521896 -0.984064 0.170477 0.050555
-11.06445885 0.90525699 -1.64273000 -0.993094 0.102346 0.057359
-11.06772232 0.90466100 -1.71060896 -0.997986 0.049846 0.039241
-11.06916428 0.91055697 -1.69859695 -0.994895 0.076701 0.065585
-11.06976032 0.90586299 -1.69628704 -0.995952 0.064644 0.062452
-11.06612396 0.88899797 -1.68338001 -0.998557 0.009332 0.052883
-11.06111336 0.92142200 -1.61830699 -0.975711 0.204961 0.077321
-11.06861591 0.88232899 -1.69217801 -0.998373 -0.028405 0.049445
-11.06707287 0.88952202 -1.67607105 -0.998535 0.017738 0.051127
-11.06801128 0.89305103 -1.67780101 -0.998190 0.030632 0.051758
-11.06288815 0.89472300 -1.60721302 -0.995231 0.082660 0.051800
-11.06646347 0.89831197 -1.63818395 -0.996089 0.066698 0.057950
-11.06436157 0.86723799 -1.62412906 -0.999156 -0.036089 0.019591
-11.06943035 0.86272198 -1.74067199 -0.993624 -0.099698 0.052650
-11.06701946 0.86243600 -1.73409903 -0.992181 -0.114005 0.050794
-11.06472397 0.88685101 -1.64543200 -0.998181 0.017806 0.057607
-11.06445503 0.88046098 -1.66538501 -0.998606 -0.019785 0.048941
-11.06615925 0.87943202 -1.64121497 -0.998613 -0.003092 0.052559
-11.06537247 0.88210899 -1.63043404 -0.998995 0.019629 0.040290
-11.06688499 0.86856401 -1.67100298 -0.996099 -0.073259 0.049204
-11.07048893 0.87988198 -1.73134005 -0.998291 -0.036896 0.045329
-11.06850624 0.87041998 -1.71937001 -0.995003 -0.085223 0.052019
-11.06958485 0.89591599 -1.72887397 -0.999109 0.013349 0.040046
-11.06823921 0.88683599 -1.74442399 -0.999369 -0.011229 0.033687
-11.06987572 0.87312102 -1.71027303 -0.995468 -0.078270 0.054018
-11.04688454 0.80098301 -1.84000695 -0.894246 -0.443710 0.058706
-11.04660988 0.79916400 -1.84380603 -0.893046 -0.444459 0.070178
-11.06912041 0.86453801 -1.71092701 -0.991406 -0.117239 0.058050
-11.06698799 0.87620902 -1.66408098 -0.997891 -0.041446 0.049948
-11.03869247 0.96241599 -1.56767201 -0.848945 0.520781 0.089888
-11.03519440 0.96557200 -1.56341100 -0.842472 0.530657 0.092972
-11.06520557 0.90717602 -1.63621294 -0.992567 0.113533 0.043839
-11.06880569 0.89772701 -1.67989194 -0.997062 0.048506 0.059285
-11.06320000 0.92747700 -1.67013502 -0.973543 0.222977 0.049957
-11.06295872 0.90204698 -1.59639502 -0.989703 0.125878 0.068136
-11.06231499 0.92937601 -1.68048406 -0.969410 0.240197 0.050503
-11.06581020 0.87572998 -1.61936104 -0.999641 0.009078 0.025218
-11.06389046 0.85862499 -1.64175200 -0.993384 -0.113310 0.018702
-11.06373501 0.87852401 -1.64758396 -0.998645 -0.017703 0.048943
-11.06722641 0.86873001 -1.64497101 -0.997828 -0.054311 0.037272
-11.06193542 0.87622499 -1.54069805 -0.998611 0.050918 0.013509
-11.06427956 0.87094200 -1.58598804 -0.999660 0.015162 0.021226
-11.06161213 0.89908099 -1.60529804 -0.992187 0.107970 0.062509
-11.06147480 0.89715600 -1.60974300 -0.994673 0.087602 0.054336
-11.06046963 0.90317601 -1.60742497 -0.990095 0.125343 0.063247
-11.06197453 0.90097201 -1.61257005 -0.992565 0.109532 0.053072
-11.06292725 0.90827602 -1.62474799 -0.991078 0.122031 0.053603
-11.06389523 0.92591202 -1.63948298 -0.971823 0.229169 0.055148
-11.06511211 0.89523900 -1.61447406 -0.996882 0.068043 0.039962
-11.06150818 0.91006303 -1.61204505 -0.985468 0.156967 0.064911
-11.05823326 0.93373299 -1.62643003 -0.955216 0.286693 0.073280
-11.06300163 0.92122298 -1.64490604 -0.978007 0.201390 0.054267
-11.06136608 0.91633701 -1.63805699 -0.983705 0.173179 0.048302
-11.06096554 0.91035199 -1.61725903 -0.985897 0.154304 0.064784
-11.05958843 0.91611099 -1.59197605 -0.978330 0.195181 0.069101
-11.06081963 0.91155201 -1.59768498 -0.983033 0.170392 0.067919
-11.05852604 0.88667601 -1.47424304 -0.993804 0.111142 0.001079
-11.06160927 0.88272899 -1.45934796 -0.995333 0.095767 0.011836
-11.05882931 0.89013398 -1.46685898 -0.989855 0.141727 0.010044
-11.05655479 0.91691202 -1.56862295 -0.973166 0.223450 0.054947
-11.06029701 0.92646098 -1.61991000 -0.967809 0.239756 0.076571
-11.06081104 0.92817700 -1.61195803 -0.963514 0.257022 0.074701
-11.04760742 0.95523000 -1.59748995 -0.885697 0.457448 0.079254
-11.05774879 0.92243499 -1.56543398 -0.961642 0.266631 0.064446
-11.05555725 0.93971199 -1.60696304 -0.942427 0.324658 0.080179
-11.05960464 0.93987697 -1.65921700 -0.944874 0.323552 0.050273
-11.05962944 0.93898201 -1.64923203 -0.945199 0.320253 0.063532
-11.05507565 0.95744997 -1.66980898 -0.898045 0.431779 0.084149
-11.05109119 0.95084602 -1.65494299 -0.910686 0.403989 0.086276
-11.05232906 0.95120800 -1.65779901 -0.912484 0.401167 0.080233
-11.05655098 0.96036297 -1.71502900 -0.909272 0.398068 0.121516
-11.04675293 0.97026098 -1.67291605 -0.844616 0.522996 0.114451
-11.06415939 0.94665700 -1.74952996 -0.962401 0.255017 0.093549
-11.05812931 0.97680700 -1.79200995 -0.905229 0.417693 0.078061
-11.05033207 0.96407402 -1.67343605 -0.874096 0.475881 0.097436
-11.05876160 0.95473701 -1.70538497 -0.928981 0.350585 0.118680
-11.05561924 0.95504802 -1.69085002 -0.922845 0.370505 0.105273
-11.04811668 0.99213499 -1.76860297 -0.820171 0.559007 0.121779
-11.05645275 0.95599198 -1.67905295 -0.911222 0.404533 0.077638
-11.03849030 0.98783398 -1.70225704 -0.785194 0.602730 0.142083
-11.03809261 0.98686099 -1.69235802 -0.797363 0.590255 0.125744
-11.05740070 0.94735301 -1.66235304 -0.925116 0.374040 0.065224
-11.05543995 0.94256002 -1.63840902 -0.931823 0.354917 0.075769
-11.05687237 0.95185298 -1.66905797 -0.918966 0.387288 0.074219
-11.04159927 0.97693098 -1.64930999 -0.825166 0.555428 0.102964
-11.05641842 0.94737399 -1.64303899 -0.926615 0.369313 0.070663
-11.05837154 0.93531102 -1.60776305 -0.953439 0.291077 0.078914
-11.05790329 0.93702698 -1.60147703 -0.948041 0.307296 0.082382
-11.04497719 0.95317900 -1.55572999 -0.887691 0.450156 0.096763
-11.04775238 0.95953101 -1.61628604 -0.870479 0.485162 0.082970
-11.05218506 0.94866902 -1.61006498 -0.909677 0.406277 0.086180
-11.05321121 0.94365901 -1.62997401 -0.930725 0.356533 0.081455
-11.06065273 0.92499799 -1.59888399 -0.965341 0.248591 0.079499
-11.06120014 0.83084798 -1.70657003 -0.956678 -0.288879 0.036266
-11.05541706 0.81914699 -1.72644198 -0.930908 -0.363818 0.032368
-11.05895615 0.82579702 -1.72905004 -0.945619 -0.322863 0.039560
-11.05021000 0.80724102 -1.51690400 -0.919014 -0.393863 -0.016898
-11.04087543 0.97786802 -1.66720700 -0.827179 0.549994 0.115251
-11.03737354 0.97083098 -1.60002899 -0.817162 0.570146 0.084732
-11.05438614 0.97341198 -1.74049199 -0.877490 0.462364 0.127401
-11.04543877 0.96175599 -1.60355306 -0.859981 0.502954 0.086423
-11.04353142 0.96850502 -1.64630997 -0.847694 0.521768 0.095777
-11.02727604 0.98206103 -1.61632502 -0.745657 0.657064 0.110741
-11.04242229 0.96993399 -1.62518406 -0.844500 0.529409 0.080902
-11.03046894 0.99845302 -1.68798196 -0.761625 0.637399 0.116832
-11.02984047 1.00021398 -1.69386101 -0.746340 0.653979 0.123645
-11.02098179 1.01045597 -1.72341895 -0.672500 0.729163 0.126746
-11.04711246 0.97357303 -1.70001996 -0.843043 0.522716 0.126675
-11.06147194 0.97355902 -1.80139995 -0.921509 0.380711 0.076680
-11.05455208 0.99902898 -1.85114396 -0.858226 0.495186 0.135051
-11.05653000 0.98744702 -1.81990802 -0.889428 0.445417 0.102572
-11.05833626 0.96470100 -1.74177694 -0.902995 0.414512 0.113049
-11.05716705 0.96251798 -1.73351300 -0.915190 0.386291 0.114918
-11.06967545 0.96752298 -1.84713304 -0.941038 0.316372 0.119817
-11.07085991 0.97647703 -1.96834600 -0.989949 0.127624 0.060938
-11.07113647 0.98336399 -1.95911503 -0.977665 0.190136 0.089548
-11.06748295 0.98497099 -1.92906201 -0.966009 0.252381 0.055946
-11.06396008 0.99644297 -1.92886603 -0.940303 0.329304 0.085963
-11.06626320 0.98435301 -1.87528896 -0.924765 0.349047 0.151578
-11.07552814 0.98887599 -2.02064705 -0.976245 0.215226 0.024971
-11.07762718 0.99336499 -2.06040096 -0.983098 0.144252 0.112735
-11.07716560 0.96710598 -2.06923509 -0.992181 0.050794 0.114005
-11.10695076 1.02927899 -2.22196603 -0.864237 -0.039846 0.501505
-11.05519485 1.00320399 -1.87299597 -0.843867 0.507511 0.174131
-11.05586529 0.98989600 -1.83445001 -0.888288 0.440579 0.129750
-11.03689384 0.78279698 -2.06438398 -0.764191 -0.644917 -0.009708
-11.04150772 0.78972298 -2.06858492 -0.779922 -0.625863 0.004127
-11.06419563 0.82775003 -1.75725400 -0.940178 -0.335126 0.061288
-11.05456448 0.80946100 -1.82668102 -0.907375 -0.418275 0.041427
-11.04915905 0.80494797 -1.84679401 -0.892272 -0.444061 0.081619
-11.04988289 0.80226898 -1.85095406 -0.889242 -0.449492 0.084889
-11.04246044 0.78190398 -1.90353596 -0.810840 -0.585072 -0.015143
-11.04519939 0.79474699 -1.70187104 -0.884909 -0.465672 0.009287
-11.05160046 0.79452199 -1.94767404 -0.854605 -0.517733 -0.040038
-11.04573154 0.78907102 -1.94843102 -0.838693 -0.541860 -0.054606
-11.05316544 0.80647999 -2.16640806 -0.834513 -0.550365 -0.026208
-11.04449844 0.78592402 -1.96529698 -0.831185 -0.555502 -0.023433
-11.04995441 0.79833901 -2.06210709 -0.822468 -0.568771 0.006820
-11.06650543 0.81846702 -1.91616297 -0.889296 -0.457238 -0.009277
-11.06185532 0.80878699 -1.91798198 -0.872625 -0.488078 -0.017479
-11.05873108 0.81240898 -1.94933295 -0.868652 -0.493832 -0.039671
-11.05758381 0.80821198 -1.95311999 -0.869071 -0.493698 -0.031281
-11.04363632 0.79330301 -2.17516899 -0.788539 -0.613622 -0.040908
-11.03545570 0.78756499 -2.18000507 -0.774730 -0.631314 -0.035151
-11.05819607 0.81041002 -2.00683808 -0.869293 -0.494251 -0.006697
-11.05556011 0.80373299 -2.07824397 -0.840024 -0.542259 0.017757
-11.05889225 0.81002098 -1.96346104 -0.863536 -0.504067 -0.014865
-11.05112457 0.79652101 -1.99239600 -0.842882 -0.538096 0.001349
-11.04643917 0.79134297 -1.99595404 -0.833916 -0.551876 -0.004068
-11.04483032 0.79315400 -2.00615191 -0.828358 -0.559997 -0.015061
-11.05435276 0.80402201 -2.00651598 -0.853175 -0.521609 0.004043
-11.06190872 0.81574100 -1.98206306 -0.869021 -0.494466 -0.017515
-11.05557632 0.80197799 -2.14188695 -0.850347 -0.525093 -0.034455
-11.05425072 0.80978203 -2.12999105 -0.870178 -0.492426 -0.017538
-11.04329586 0.79516298 -2.20723104 -0.793230 -0.607909 -0.035099
-11.04924774 0.80501503 -2.21598291 -0.811167 -0.584538 -0.017965
-11.04167557 0.79537302 -2.21872807 -0.789131 -0.613769 -0.023660
-11.05848885 0.80973601 -2.14721298 -0.872391 -0.488268 -0.022993
-11.03129196 0.77270001 -2.13129210 -0.745020 -0.664941 -0.052909
-11.06529903 0.82431000 -2.25960302 -0.847634 -0.529943 0.026018
-11.05174446 0.81003600 -2.22623301 -0.819750 -0.572589 -0.012358
-11.05568218 0.81175500 -2.25153995 -0.822110 -0.568080 0.037686
-11.04554653 0.80379301 -2.23410702 -0.801756 -0.597522 0.012420
-11.02809429 0.77601701 -2.23146009 -0.760872 -0.647941 0.035291
-11.05271435 0.80654299 -2.17059398 -0.826847 -0.561814 -0.026227
-11.02746964 0.77106500 -2.06813502 -0.756545 -0.653822 -0.012493
-11.04641247 0.79618502 -2.16964412 -0.811213 -0.582662 -0.049378
-11.05053139 0.79934502 -2.16542292 -0.816547 -0.575644 -0.043418
-11.03702354 0.78336501 -2.26291800 -0.808321 -0.543500 0.226330
-11.04989815 0.80252898 -2.25424290 -0.809192 -0.583703 0.067076
-11.03790760 0.78272802 -2.20667791 -0.767143 -0.640922 -0.026647
-11.04772854 0.80036002 -2.25018811 -0.805441 -0.589520 0.061083
-11.04985332 0.79716903 -2.27667308 -0.808881 -0.543876 0.223405
-11.04825211 0.79136997 -2.27857089 -0.815686 -0.502563 0.286508
-11.04507732 0.80306798 -2.24099994 -0.803485 -0.594607 0.029243
-11.02544689 0.76981199 -2.19891906 -0.708464 -0.705680 -0.009743
-11.02243710 0.76894200 -2.20311308 -0.709863 -0.704328 -0.004151
-11.02366543 0.77161902 -2.21046209 -0.723512 -0.690311 0.001383
-11.03216076 0.78467798 -2.23508406 -0.790870 -0.610422 0.043702
-11.04891968 0.80087501 -2.17524695 -0.809630 -0.585898 -0.034958
-11.04723072 0.79391599 -2.12393188 -0.819403 -0.572612 -0.026343
-11.03147125 0.77470702 -2.20218801 -0.737038 -0.675735 -0.012539
-11.04693985 0.79422200 -2.16149306 -0.804357 -0.591564 -0.055326
-11.04334927 0.79135603 -2.15273404 -0.795993 -0.603025 -0.052499
-11.03154659 0.77662897 -2.08197188 -0.761478 -0.648154 0.006910
-11.03490353 0.77446800 -2.27122402 -0.786362 -0.509768 0.348958
-11.03884411 0.78182298 -2.27925706 -0.779004 -0.490724 0.390312
-11.03496647 0.78711599 -2.24984288 -0.807895 -0.573680 0.134896
-11.04078484 0.79303402 -2.24671197 -0.807886 -0.584031 0.078923
-11.05268955 0.79777700 -2.09883404 -0.832222 -0.554361 -0.009534
-11.03550053 0.77682102 -2.02684593 -0.786306 -0.615060 -0.058509
-11.04618073 0.78783000 -2.08122206 -0.771844 -0.635555 0.018079
-11.05249405 0.80028600 -2.09548712 -0.835164 -0.549986 -0.004074
-11.04697418 0.79961097 -2.19860601 -0.802692 -0.595365 -0.035021
-11.04723454 0.80306798 -2.20680308 -0.804587 -0.593365 -0.023623
-11.04728508 0.79822600 -2.18214798 -0.800267 -0.598448 -0.037841
-11.04180908 0.78468299 -2.02300906 -0.810666 -0.584628 -0.032092
-11.05396271 0.79613602 -1.93439806 -0.855728 -0.515649 -0.042856
-11.04391098 0.78572398 -2.08890200 -0.770716 -0.636921 0.018118
-11.04323101 0.78438199 -2.09411502 -0.770335 -0.637566 0.009681
-11.04698277 0.79680002 -2.00600910 -0.836786 -0.547392 -0.012286
-11.05343056 0.80013603 -2.02400994 -0.847108 -0.530304 -0.034435
-11.04831696 0.79627502 -2.01283312 -0.837151 -0.546683 -0.017812
-11.05104828 0.79661298 -1.95243096 -0.852249 -0.521813 -0.037174
-11.04687023 0.78911698 -1.91518795 -0.836546 -0.547132 -0.028941
-11.05848980 0.80643600 -1.94605196 -0.866018 -0.498200 -0.042546
-11.04862976 0.79498899 -2.01990294 -0.837737 -0.545150 -0.031743
-11.04349136 0.78271902 -1.82150400 -0.873136 -0.486286 0.034054
-11.03999138 0.78291798 -2.05294394 -0.778473 -0.626986 -0.029456
-11.05307388 0.79635602 -1.91160405 -0.853987 -0.519995 -0.017650
-11.04071808 0.77796602 -1.91072404 -0.791951 -0.609733 -0.032239
-11.02081871 0.76271802 -2.05495000 -0.747658 -0.662211 -0.049844
-11.04245567 0.78347898 -1.98149896 -0.819933 -0.572458 -0.001360
-11.04388332 0.78676701 -1.97184098 -0.829270 -0.558767 -0.009563
-11.04064369 0.77816200 -2.01064396 -0.800090 -0.599020 -0.032115
-11.02744579 0.76680499 -2.04030704 -0.754109 -0.653561 -0.064638
-11.04282475 0.78610802 -1.99172699 -0.820314 -0.571899 -0.004095
-11.04009247 0.78126001 -1.97499204 -0.814654 -0.579946 -0.001365
-11.04994678 0.80160999 -1.76452100 -0.867652 -0.495997 0.034160
-11.03877831 0.78326899 -1.77408695 -0.845162 -0.533569 0.031711
-11.03432274 0.76988500 -1.85857403 -0.813063 -0.580759 0.040583
-11.03224277 0.76417100 -1.85138905 -0.800514 -0.597924 0.040799
-11.05373383 0.80015898 -1.85881901 -0.885605 -0.456052 0.087863
-11.04198360 0.77995402 -1.81765294 -0.864237 -0.501505 0.039846
-11.04988861 0.79912198 -1.83399498 -0.895957 -0.441897 0.044595
-11.04673958 0.79779899 -1.83978605 -0.889135 -0.453473 0.061650
-11.04854965 0.79466599 -1.83571601 -0.889306 -0.454836 0.047520
-11.05300331 0.79862797 -1.85222900 -0.887217 -0.454022 0.081918
-11.04883385 0.79497999 -1.84324598 -0.888024 -0.454370 0.070434
-11.02406406 0.76004797 -1.64260101 -0.813113 -0.581974 -0.012382
-11.05580044 0.81460398 -1.85251105 -0.892795 -0.438689 0.102314
-11.02302265 0.75831503 -1.77050495 -0.804587 -0.593365 0.023623
-11.03992462 0.78868699 -1.74428904 -0.856281 -0.516466 0.006742
-11.03338432 0.77278602 -1.77821302 -0.832868 -0.552001 0.040322
-11.04499054 0.79183102 -1.71407497 -0.879354 -0.476151 0.003979
-11.04856682 0.79906201 -1.72019100 -0.883724 -0.467854 0.011996
-11.05032635 0.80295199 -1.73843503 -0.885002 -0.464727 0.028288
-11.04849052 0.79977202 -1.79039204 -0.880290 -0.474208 0.014694
-11.04728222 0.79878300 -1.80005801 -0.882479 -0.470030 0.017409
-11.05309677 0.80640602 -1.83656299 -0.899144 -0.432517 0.066856
-11.01696587 0.75353301 -1.85008502 -0.750045 -0.661315 0.009705
-11.05151939 0.80521202 -1.77607703 -0.875498 -0.482801 0.020173
-11.04948711 0.79597503 -1.82031906 -0.895793 -0.443210 0.033475
-11.05477715 0.80657101 -1.83172798 -0.905185 -0.422419 0.046935
-11.03963280 0.77781498 -1.82611704 -0.859711 -0.509813 0.031436
-11.05297375 0.81099403 -1.85338902 -0.887691 -0.450156 0.096763
-11.05320263 0.80571502 -1.78438199 -0.882749 -0.469829 -0.003970
-11.05703354 0.81108099 -1.81154704 -0.911608 -0.410810 0.014346
-11.05552101 0.81245798 -1.77201796 -0.895406 -0.444367 0.028023
-11.05227661 0.80338597 -1.82831895 -0.904268 -0.424671 0.044209
-11.05269909 0.80286002 -1.83237302 -0.905609 -0.421182 0.049788
-11.05502510 0.81812501 -1.65814495 -0.931712 -0.362688 0.019224
-11.05865192 0.81229800 -1.80340004 -0.907762 -0.419467 0.003896
-11.04972458 0.80674303 -1.85163403 -0.889918 -0.447048 0.090524
-11.04859543 0.80270803 -1.81048501 -0.898706 -0.438103 0.019854
-11.05358028 0.80422902 -1.80170798 -0.895156 -0.445595 0.011900
-11.05185699 0.80513602 -1.85543597 -0.885680 -0.454733 0.093745
-11.05042839 0.80181199 -1.80364799 -0.893001 -0.449818 0.014596
-11.05120564 0.79623801 -1.82845902 -0.895622 -0.443097 0.039057
-11.04472446 0.79719400 -1.78041303 -0.866925 -0.497905 0.023064
-11.04075527 0.78776199 -1.74980605 -0.853586 -0.520809 0.012175
-11.05962753 0.82327998 -1.69078803 -0.941348 -0.335922 0.031932
-11.04554081 0.79882401 -1.68640304 -0.892801 -0.449737 0.025356
-11.05083847 0.80970103 -1.65474105 -0.908743 -0.416891 0.019727
-11.03987789 0.78436601 -1.66020298 -0.871548 -0.490162 0.012086
-11.03648853 0.77959800 -1.66637099 -0.865392 -0.500875 0.014851
-11.05033302 0.80719399 -1.71301794 -0.904368 -0.426589 0.011813
-11.04876232 0.80370998 -1.69202304 -0.898195 -0.439147 0.019901
-11.04246235 0.79550099 -1.63571203 -0.887734 -0.460355 -0.001319
-11.04896736 0.80507803 -1.63693202 -0.902878 -0.429880 0.003920
-11.05362415 0.81355798 -1.58426094 -0.921120 -0.389260 0.003854
-11.04589558 0.79935801 -1.64270198 -0.894100 -0.447710 0.011886
-11.05688667 0.82100701 -1.58014596 -0.943838 -0.330406 0.001247
-11.05284309 0.81360900 -1.55932200 -0.926612 -0.375998 -0.003824
-11.05174732 0.81121099 -1.68236601 -0.919860 -0.391623 0.022118
-11.05596828 0.81956601 -1.60931396 -0.938908 -0.344056 -0.008822
-11.05650520 0.82573098 -1.53844404 -0.957988 -0.286786 0.003661
-11.05740643 0.81997102 -1.54257202 -0.954632 -0.297786 0.001225
-11.05687046 0.81726700 -1.53989995 -0.945644 -0.325182 -0.003738
-11.05715179 0.82588202 -1.63534200 -0.950625 -0.310282 -0.006181
-11.05678844 0.82007998 -1.64833605 -0.936007 -0.351796 0.011430
-11.05447769 0.81435102 -1.70619297 -0.924288 -0.380895 0.024700
-11.05455971 0.81979400 -1.62139702 -0.934136 -0.356531 -0.016613
-11.04051208 0.78941101 -1.66838300 -0.877916 -0.478498 0.017424
-11.05766392 0.82382798 -1.70744002 -0.941033 -0.337448 0.024194
-11.05713272 0.82630497 -1.61433899 -0.949552 -0.313190 -0.016221
-11.04981804 0.80996102 -1.63465595 -0.910632 -0.413217 -0.001295
-11.05037212 0.80744600 -1.64824200 -0.908265 -0.418297 0.009122
-11.06196117 0.83015299 -1.71640503 -0.952007 -0.303886 0.036567
-11.05348587 0.81323898 -1.67032099 -0.922118 -0.386275 0.022110
-11.05407333 0.81472802 -1.68849897 -0.924226 -0.380869 0.027298
-11.04655743 0.80099899 -1.66448903 -0.895617 -0.444491 0.017249
-11.05070496 0.80719697 -1.60741103 -0.901361 -0.433019 -0.006541
-11.03913307 0.78703099 -1.64898300 -0.876375 -0.481539 0.009337
-11.04831219 0.80093700 -1.50966406 -0.899189 -0.436977 -0.022579
-11.04232883 0.79149199 -1.68210304 -0.879461 -0.475421 0.022896
-11.03211784 0.77432197 -1.59511197 -0.848073 -0.529877 -0.001348
-11.04313755 0.79407901 -1.59443998 -0.882150 -0.470922 -0.006633
-11.04692745 0.80186802 -1.63219500 -0.896251 -0.443546 0.001308
-11.02529621 0.76216000 -1.59596705 -0.819933 -0.572458 -0.001360
-11.03144836 0.77302003 -1.74042702 -0.826370 -0.563126 0.001357
-11.04167747 0.78895700 -1.70383096 -0.877010 -0.480426 0.006654
-11.03382587 0.77807802 -1.63471997 -0.861485 -0.507781 -0.001340
-11.03053379 0.77508497 -1.61264098 -0.847295 -0.531080 -0.006757
-11.04000759 0.78349203 -1.67840004 -0.868705 -0.494660 0.025749
-11.04023075 0.78767699 -1.69418097 -0.875542 -0.482826 0.017484
-11.02340317 0.75989598 -1.53224194 -0.813714 -0.581225 -0.006838
-11.02023602 0.75555098 -1.61663795 -0.802126 -0.597153 0.001366
-11.03230953 0.77375299 -1.65877104 -0.851667 -0.523998 0.009478
-11.00627804 0.74042797 -1.70351505 -0.759123 -0.650875 0.009715
-11.02797318 0.76629901 -1.67529094 -0.827495 -0.561270 0.015095
-11.01549244 0.75001299 -1.74779606 -0.783925 -0.620780 0.009678
-11.03793621 0.78399003 -1.73607194 -0.853175 -0.521609 0.004043
-11.02535820 0.75925899 -1.88226104 -0.751502 -0.659482 -0.018125
-11.03016853 0.77078700 -1.77819204 -0.827377 -0.560391 0.037545
-11.02612877 0.76441598 -1.77541304 -0.816195 -0.577038 0.029199
-11.02723885 0.76837599 -1.77637804 -0.820807 -0.569966 0.037626
-11.01645470 0.75333798 -2.01601696 -0.720176 -0.691541 -0.055839
-11.03709507 0.77381802 -1.89202094 -0.788696 -0.614658 -0.012431
-11.02052212 0.75582898 -1.76436198 -0.798609 -0.601387 0.023611
-11.02030182 0.75290900 -1.89916396 -0.726248 -0.686915 -0.026690
-11.03115559 0.76815403 -1.91032398 -0.756964 -0.652652 -0.032421
-11.02989006 0.76339799 -1.88330197 -0.764191 -0.644917 -0.009708
-11.02238464 0.75702602 -1.68797898 -0.793678 -0.608071 0.018007
-11.02174568 0.75452000 -1.73299694 -0.793179 -0.608975 -0.004124
-11.01869202 0.75291300 -1.75894499 -0.791309 -0.611151 0.018016
-11.00706577 0.73716903 -1.88378704 -0.706905 -0.706905 -0.023891
-11.02270889 0.75603801 -1.89318705 -0.734414 -0.678458 -0.018185
-11.01655006 0.75270301 -1.76578701 -0.790227 -0.612460 0.020832
-11.01309204 0.74392700 -1.74121201 -0.782341 -0.622848 0.001375
-11.02428436 0.75561500 -1.83025098 -0.781920 -0.623028 0.020907
-11.02568054 0.75900000 -1.85127103 -0.770809 -0.636512 0.026580
-11.02087212 0.75591397 -1.87536502 -0.750156 -0.661084 -0.015309
-11.03133965 0.76303899 -1.87144494 -0.772599 -0.634881 -0.004132
-11.01285076 0.74569702 -1.89668095 -0.719269 -0.693833 -0.035328
-11.01391220 0.74746501 -1.89116299 -0.726248 -0.686915 -0.026690
-11.01338005 0.74284798 -1.86426997 -0.718114 -0.695890 -0.006945
-11.01397514 0.74785101 -1.90208006 -0.719411 -0.694070 -0.026749
-11.01540565 0.74997503 -1.90821803 -0.718090 -0.695781 -0.015338
-11.01543617 0.74761701 -1.95606899 -0.723542 -0.690212 -0.009721
-11.01760960 0.75222200 -1.95270801 -0.734380 -0.678214 -0.026679
-10.99950123 0.73135400 -1.84480500 -0.698690 -0.715358 -0.009723
-11.01620960 0.75130200 -1.78068197 -0.783175 -0.621235 0.026525
-11.00775433 0.73843497 -1.80399299 -0.741106 -0.671059 0.021014
-11.00334930 0.73289502 -1.74807596 -0.743494 -0.668729 0.004154
-11.00889206 0.73781502 -1.81388295 -0.736861 -0.676032 0.004147
-11.01003456 0.74482900 -1.73186803 -0.771254 -0.636526 -0.001375
-11.01745319 0.75094700 -1.74057400 -0.787127 -0.616789 0.001374
-11.00951576 0.74217403 -1.63338304 -0.763803 -0.645448 -0.001376
-11.01954937 0.75153100 -1.73638105 -0.790530 -0.612421 -0.001370
-11.02438545 0.75984502 -1.69381702 -0.801756 -0.597522 0.012420
-11.02491474 0.75947702 -1.71549702 -0.805708 -0.592312 -0.001368
-11.01653862 0.74898899 -1.73608196 -0.787121 -0.616784 -0.004121
-11.01216221 0.74603599 -1.64650297 -0.773951 -0.633232 -0.004139
-11.01641464 0.75023502 -1.70254195 -0.775502 -0.631222 0.012486
-11.03042698 0.76948899 -1.61817503 -0.842099 -0.539322 -0.001352
-11.03242111 0.77520299 -1.61947298 -0.853162 -0.521602 -0.006739
-11.00842857 0.74327898 -1.66842902 -0.766706 -0.641925 0.009705
-11.01704693 0.75143099 -1.62260902 -0.782598 -0.622490 -0.006901
-11.02155399 0.75764698 -1.63686800 -0.801445 -0.597991 -0.009623
-11.01480198 0.74893898 -1.61127996 -0.779928 -0.625868 -0.001376
-11.02802277 0.76986802 -1.69047797 -0.827495 -0.561270 0.015095
-11.02505016 0.76621199 -1.75583804 -0.817552 -0.575722 0.012366
-11.02853870 0.76863098 -1.68123102 -0.831745 -0.554953 0.015073
-11.02110767 0.75778800 -1.73826206 -0.799835 -0.600218 0.001367
-11.02062511 0.75589502 -1.74992597 -0.796814 -0.604148 0.009633
-11.02909470 0.76851100 -1.61249399 -0.836802 -0.547504 -0.001352
-11.04854870 0.79825598 -1.47457695 -0.892387 -0.449569 -0.039152
-11.01675320 0.75179797 -1.61690605 -0.786073 -0.618120 -0.004130
-11.01851177 0.75353700 -1.72282004 -0.791857 -0.610705 -0.001372
-11.03387260 0.77433097 -1.71870100 -0.843320 -0.537396 -0.004061
-11.00933647 0.74554300 -2.02818704 -0.699982 -0.711481 -0.061805
-11.02795124 0.76441902 -1.83632302 -0.804747 -0.592751 0.032078
-11.02241039 0.75642997 -1.84384406 -0.768168 -0.639907 0.020912
-11.03853989 0.77359301 -1.84578800 -0.842867 -0.535353 0.054514
-11.02369022 0.75901097 -1.90618205 -0.734374 -0.678421 -0.020982
-11.02512836 0.75932902 -1.91192698 -0.738444 -0.673988 -0.021018
-11.01698875 0.74811703 -1.88087702 -0.728971 -0.684025 -0.026687
-11.03917122 0.77848202 -1.89769495 -0.795508 -0.605905 -0.006870
-11.01745129 0.75144601 -1.84239197 -0.752644 -0.658391 0.006930
-11.03335476 0.76710898 -1.88975406 -0.766875 -0.641614 -0.015310
-11.02796841 0.76549101 -1.78240597 -0.816126 -0.576989 0.031978
-11.02261353 0.75736398 -1.78263903 -0.798820 -0.600857 0.029276
-11.02304554 0.75895703 -1.77881598 -0.802216 -0.596449 0.026416
-11.03185272 0.77012300 -1.79402697 -0.829619 -0.557248 0.034741
-11.03099155 0.77248001 -1.75799096 -0.832618 -0.553711 0.012305
-11.02899456 0.77021903 -1.74850595 -0.824239 -0.566240 -0.001358
-11.02451897 0.75837600 -1.80241799 -0.799256 -0.599793 0.037926
-11.03763771 0.78038597 -1.75570500 -0.844534 -0.535459 0.006778
-11.03160000 0.76558799 -1.79731202 -0.823990 -0.565538 0.034738
-11.03704834 0.77353501 -1.86166203 -0.826721 -0.560939 0.043364
-11.03701401 0.77563101 -1.86406505 -0.830084 -0.555722 0.046194
-11.04031658 0.77910602 -1.84481096 -0.854310 -0.515942 0.062920
-11.04126263 0.78132099 -1.85636997 -0.853020 -0.519048 0.054270
-11.02725983 0.75809997 -1.86021698 -0.765689 -0.642955 0.018131
-11.02776527 0.76777101 -1.71734202 -0.819387 -0.573161 -0.009575
-11.03879833 0.77961099 -1.76017404 -0.843303 -0.537144 0.017768
-11.03256130 0.76491702 -1.86855400 -0.783664 -0.621147 0.006886
