-10.05735779 2.53171802 0.81083602 -0.607685 -0.765404 0.211839
-10.08214378 2.39508891 0.84169102 0.687577 0.724590 -0.046977
-10.18031597 2.42063308 0.84548599 -0.492818 0.868952 0.045301
-10.06237888 2.37279391 0.77219498 0.655416 0.737533 -0.162713
-10.03974056 2.32998705 0.89639401 0.971196 0.223163 -0.083530
-10.06516075 2.24777889 0.80349803 0.718060 -0.695664 -0.020996
-10.05765343 2.54362798 0.83195502 -0.742440 -0.583923 0.328356
-10.03602886 2.52451110 0.79479402 -0.250232 -0.954093 0.164591
-10.08077335 2.40107894 0.87303400 0.741017 0.671241 0.018142
-10.06305408 2.37408209 0.86039197 0.794033 0.596630 0.116380
-10.08114815 2.39478493 0.90225399 0.746199 0.663128 0.058722
-10.15433693 2.20157099 0.87137198 0.076474 -0.991883 -0.101585
-10.05777264 2.25193810 0.83795500 0.761815 -0.647613 -0.015320
-10.04646206 2.36313391 0.79578000 0.729145 0.679662 -0.080046
-10.07006645 2.52147198 0.72199500 -0.783201 -0.492528 0.379489
-10.06778622 2.53652406 0.76425701 -0.781131 -0.598411 0.178153
-10.04515457 2.51486993 0.74076802 -0.388799 -0.856597 0.339231
-10.03408623 2.32274890 0.70852298 0.984396 0.014898 0.175335
-10.04242611 2.52122498 0.76889998 -0.378540 -0.911615 0.160206
-10.08142471 2.55936289 0.73013002 -0.974564 -0.137068 0.177308
-10.07216263 2.54673600 0.76423401 -0.885374 -0.436166 0.160845
-10.05821323 2.53326702 0.80269200 -0.729436 -0.672752 0.123810
-10.05507183 2.26257205 0.72799200 0.839289 -0.536172 -0.090077
-10.03521729 2.30281997 0.73237401 0.993480 -0.112821 -0.016430
-10.03534031 2.30640292 0.75665301 0.975069 -0.216817 0.047239
-9.97590160 2.53195095 0.77547997 0.443563 -0.825563 0.348852
-9.98410416 2.51341891 0.75065500 0.440147 -0.784468 0.436898
-10.06526470 2.49737692 0.70364702 -0.373511 -0.469694 0.799923
-10.06819153 2.48270202 0.69527799 -0.484131 -0.239775 0.841502
-10.07359123 2.54510593 0.75158697 -0.932849 -0.315584 0.173780
-10.07890892 2.62736893 0.77532202 -0.980213 0.180534 -0.081180
-10.04891109 2.69197702 0.77300000 -0.678470 0.720592 -0.142915
-10.08096027 2.61504412 0.76902300 -0.998497 0.054726 -0.003098
-9.90853310 2.63987303 0.74960899 0.973060 0.214993 -0.083263
-9.96763706 2.72049999 0.76350200 0.364099 0.906621 -0.213237
-9.95759869 2.55403304 0.82156700 0.644956 -0.726556 0.236955
-9.94671822 2.55751610 0.79440302 0.733967 -0.647070 0.206380
-9.74928284 2.70546198 0.78607601 -0.788149 -0.378763 0.485139
-9.78645992 2.69062901 0.72507000 -0.828057 -0.165611 0.535626
-9.64527607 2.26512003 0.95209998 -0.235408 -0.953740 -0.186982
-9.98771858 2.50224495 0.72856200 0.364350 -0.886135 0.286382
-9.73676205 2.34108996 0.81505799 -0.898387 -0.366118 0.242608
-9.69966602 2.30205703 0.77397603 -0.437794 -0.898348 -0.036148
-9.92673302 2.57152605 0.76349503 0.796484 -0.578020 0.177502
-9.74855518 2.36325002 0.76950198 -0.968566 0.102554 0.226632
-9.73494720 2.37316489 0.79158998 -0.906733 0.365875 0.209691
-9.74919128 2.34636211 0.77022201 -0.953437 -0.111782 0.280113
-9.73730755 2.35365796 0.82017398 -0.969615 0.025421 0.243312
-9.98884487 2.55135989 0.88354802 0.182121 -0.951076 0.249573
-9.96188354 2.54263711 0.78250402 0.480548 -0.843628 0.239511
-10.04913616 2.34704399 0.87289298 0.870767 0.465284 0.158984
-10.03953648 2.32659507 0.87490797 0.971196 0.223163 -0.083530
-10.07666016 2.23654890 0.80459499 0.549567 -0.834733 0.034607
-10.07078743 2.57482600 0.82321501 -0.930458 -0.310153 0.195073
-10.06464481 2.54293203 0.81154299 -0.774410 -0.610739 0.165187
-10.04480267 2.36027908 0.84038901 0.771354 0.546843 0.325540
-10.03026295 2.53116608 0.82505500 -0.171145 -0.917961 0.357849
-10.03650665 2.54029894 0.84121102 -0.323457 -0.822054 0.468618
-10.02668381 2.54656601 0.86767298 -0.403902 -0.867246 0.291114
-10.01212692 2.53096199 0.82369298 0.092526 -0.967089 0.237019
-9.65660954 2.27926993 0.84770501 -0.134702 -0.968571 -0.209109
-9.69431019 2.29814291 0.81566298 -0.413458 -0.907425 -0.075050
-9.68317890 2.29410195 0.81529403 -0.295700 -0.950182 -0.098567
-10.07606316 2.23173308 0.77935398 0.654323 -0.755638 0.029550
-10.02166462 2.55624700 0.90770501 -0.256550 -0.945257 0.201673
-10.04236794 2.26122594 0.92453700 0.718968 -0.693240 -0.050028
-10.05093002 2.26373792 0.87607700 0.869664 -0.481242 -0.109957
-10.04261017 2.56901503 0.90624499 -0.603877 -0.789007 0.113135
-10.04539299 2.56237698 0.87703598 -0.573861 -0.753896 0.319883
-10.03433323 2.56376410 0.93891400 -0.304116 -0.923770 0.232727
-10.02946663 2.55601192 0.89210600 -0.580330 -0.786602 0.210889
-10.03093815 2.31001091 0.93890500 0.994811 0.101730 -0.001071
-9.66172218 2.36706209 0.98763901 -0.426885 0.833292 0.351274
-9.70491123 2.32555103 0.90459299 -0.859328 -0.511280 -0.012141
-9.65679646 2.28698611 0.82402599 -0.043656 -0.961682 -0.270668
-9.67684174 2.28684497 0.86458498 -0.491593 -0.870160 0.034044
-9.65830326 2.27855396 0.89751500 -0.323658 -0.946173 -0.001240
-9.66324139 2.38522601 0.93604302 -0.349797 0.923966 0.154691
-9.91167068 2.64698601 0.86796701 0.965822 -0.234100 0.111293
-9.97352028 2.55129910 0.85976797 0.474835 -0.858872 0.192018
-9.93327427 2.60435510 0.90841502 0.850614 -0.497305 0.170717
-9.92114639 2.61581898 0.86281198 0.923739 -0.343423 0.169609
-9.93160152 2.59366298 0.86071199 0.825391 -0.528553 0.198397
-9.90681076 2.67492390 0.88289303 0.994848 -0.011908 -0.100676
-9.63292408 2.39869404 0.73219901 0.695329 0.698386 -0.169630
-9.92288494 2.61191201 0.88370401 0.859618 -0.496764 0.119511
-10.06753159 2.59803891 0.87793201 -0.933699 -0.297276 0.199580
-10.06551933 2.60958409 0.90023798 -0.926734 -0.334072 0.171928
-10.06993198 2.69533610 0.93007499 -0.942760 0.327293 -0.063894
-10.07252884 2.62445903 0.87867099 -0.981824 -0.053554 0.182084
-10.07426071 2.63660908 0.86286998 -0.997978 0.003122 0.063479
-10.07593441 2.60784507 0.85600197 -0.968296 -0.176640 0.176640
-9.91487789 2.68295908 0.79683602 0.926745 0.351144 -0.133572
-10.06085396 2.69323802 0.83516097 -0.869233 0.453190 -0.197620
-10.07545853 2.65028095 0.86010700 -0.992007 0.064919 0.108198
-10.08138847 2.62262511 0.82056397 -0.995656 -0.016181 0.091691
-10.06218624 2.68020391 0.81257701 -0.857827 0.505023 -0.095314
-9.93151474 2.58026600 0.81559902 0.748961 -0.654789 0.101529
-9.73482990 2.68347502 0.77487898 -0.020041 -0.463614 0.885810
-9.90970135 2.67192006 0.86514997 0.993786 -0.107227 0.029847
-9.94655323 2.72999501 0.81972200 0.560029 0.715318 -0.417957
-9.93906593 2.73659706 0.84007400 0.636779 0.742135 -0.209161
-9.72516346 2.73375702 0.84222603 -0.824420 -0.262386 0.501483
-9.94916439 2.74362397 0.86224103 0.445735 0.884304 -0.139023
-10.05619335 2.70336890 0.83839202 -0.808076 0.546413 -0.220104
-10.05693340 2.71354795 0.84774703 -0.786315 0.579309 -0.214731
-10.00944614 2.74537802 0.86756200 -0.261008 0.900993 -0.346536
-9.99860668 2.75694990 0.88128299 -0.206664 0.919297 -0.334938
-10.07100868 2.66674709 0.80571300 -0.895722 0.440362 -0.061351
-10.02733612 2.72249699 0.81825298 -0.491682 0.822591 -0.285644
-10.02931976 2.73161507 0.84163398 -0.543819 0.804108 -0.240148
-10.05410099 2.69672108 0.80407500 -0.773707 0.618068 -0.139177
-10.02484798 2.72860003 0.82377398 -0.488343 0.829408 -0.271302
-10.07529163 2.67196298 0.84874701 -0.954619 0.297624 -0.011115
-10.06165981 2.71688795 0.95718002 -0.920038 0.389399 -0.043560
-10.05343723 2.71936297 0.85478503 -0.785691 0.570987 -0.238041
-10.05156517 2.72758389 0.90225297 -0.801779 0.588556 -0.103691
-10.06114006 2.70537806 0.85454500 -0.902113 0.413877 -0.122059
-10.05250454 2.74694705 0.97553700 -0.796822 0.595795 -0.100513
-9.95336533 2.74927497 0.86685902 0.277780 0.932045 -0.232659
-10.06223106 2.71965599 0.93660301 -0.860770 0.500579 -0.092175
-9.92540932 2.74250293 0.92407298 0.755343 0.641667 -0.133120
-9.69672775 2.78789711 0.91696697 -0.927154 0.329624 0.178137
-9.93340683 2.62870002 0.98392099 0.840695 -0.539551 0.046008
-9.91987801 2.75448608 0.99117702 0.733196 0.667492 -0.129915
-9.90410709 2.71319294 1.01004505 0.985769 0.103702 -0.132310
-9.70335865 2.75565505 0.89034200 -0.897378 -0.165118 0.409205
-9.69961357 2.77957702 0.90324497 -0.922250 0.294030 0.251001
-9.66251373 2.70967007 0.87771797 0.000000 0.000000 0.000000
-9.68623924 2.79179502 0.96437198 -0.987367 0.040324 0.153232
-9.67938232 2.80946398 0.96788001 -0.951894 0.289365 0.100820
-9.95970821 2.75723696 0.90401500 0.263773 0.925344 -0.272328
-9.98865795 2.76439905 0.89241499 -0.006234 0.946397 -0.322947
-9.99301147 2.74477291 0.83047903 -0.157268 0.958148 -0.239207
-9.95495224 2.73774004 0.83388102 0.332174 0.888302 -0.317143
-9.98060799 2.74622202 0.84080797 0.017196 0.984753 -0.173106
-10.01755238 2.73862290 0.85509098 -0.372438 0.896501 -0.239950
-10.03664970 2.70769095 0.78193998 -0.574445 0.790055 -0.214069
-10.00806046 2.73716092 0.82642603 -0.311779 0.908988 -0.276649
-10.01492882 2.71731806 0.77245700 -0.454252 0.881278 -0.130400
-9.65713120 2.84973502 0.81265599 -0.771158 0.635321 0.041034
-9.94313240 2.71205497 0.78434402 0.607922 0.750034 -0.260538
-9.95404053 2.72318101 0.79654801 0.434087 0.851182 -0.295056
-9.72727203 2.76355290 0.84094697 -0.889908 0.120258 0.440002
-9.71110916 2.77377295 0.86023301 -0.778721 0.520760 0.349860
-9.76129723 2.74672604 0.75168997 -0.713247 0.692573 0.107799
-9.78244019 2.70981312 0.73826301 -0.834785 0.317939 0.449499
-9.70602608 2.42734790 0.70502102 -0.174346 0.963493 0.203186
-9.97190475 2.73797894 0.81029701 0.107812 0.923910 -0.367107
-9.91971397 2.67541909 0.77387100 0.878650 0.460109 -0.127569
-10.02322865 2.70463705 0.72822797 -0.588628 0.780203 -0.211659
-9.92758274 2.69219708 0.77710801 0.840645 0.506793 -0.190987
-9.95569229 2.70914412 0.75161600 0.394307 0.897741 -0.196426
-10.00499630 2.72786188 0.79644501 -0.341651 0.893665 -0.290926
-10.01855946 2.71246696 0.75828099 -0.581606 0.798018 -0.157800
-10.03764343 2.70268798 0.77240801 -0.598297 0.778857 -0.188211
-10.06022453 2.68690300 0.80692899 -0.828631 0.552899 -0.087602
-10.05900764 2.68754792 0.78015101 -0.788535 0.612990 -0.049549
-10.04605484 2.69689488 0.78393197 -0.678263 0.723181 -0.130262
-10.03899479 2.70976806 0.79609400 -0.596822 0.775715 -0.205109
-10.01408195 2.72161698 0.79447001 -0.418117 0.870951 -0.258115
-9.97709560 2.71669698 0.75199300 0.111641 0.937517 -0.329543
-10.02441216 2.70250201 0.72410297 -0.588628 0.780203 -0.211659
-10.04143524 2.68974590 0.74158901 -0.620671 0.759282 -0.195596
-10.05565834 2.68539405 0.75394899 -0.716069 0.676372 -0.172528
-10.05383492 2.68208599 0.73910499 -0.661003 0.708330 -0.247679
-9.76948547 2.73930597 0.71973699 -0.756342 0.648501 0.085981
-9.69049931 2.82219791 0.75935203 -0.801111 0.575657 0.163829
-9.70201969 2.80701399 0.71103501 -0.874523 0.426050 0.231711
-9.66683197 2.85152197 0.75057298 -0.736989 0.674266 0.047042
-9.65933418 2.86051798 0.70806700 -0.483054 0.873372 -0.062285
-9.66267586 2.85883188 0.76845199 -0.693499 0.716664 0.073838
-9.73654079 2.74286699 0.82765001 -0.829408 -0.271302 0.488343
-9.71428108 2.78502893 0.78039002 -0.667544 0.740261 0.079989
-9.71129417 2.72829700 0.85871798 -0.814866 -0.371553 0.444907
-9.71529579 2.76147795 0.86789697 -0.885632 -0.042044 0.462481
-9.71244717 2.71458912 0.83654398 -0.755688 -0.547671 0.359155
-9.69452190 2.79432511 0.84413099 -0.709095 0.697301 0.104669
-9.65179157 2.41598105 0.77471298 0.231309 0.955989 0.180501
-9.69236279 2.65460610 0.74682599 0.000000 0.000000 0.000000
-9.61798000 2.67633200 0.78083700 0.000000 0.000000 0.000000
-9.62803936 2.40340996 0.78197098 0.595111 0.799726 -0.079252
-9.62311459 2.39927602 0.80867100 0.470085 0.882250 -0.025592
-9.61857319 2.39098310 0.76471102 0.816383 0.557639 -0.150191
-9.70490837 2.41008306 0.78895497 -0.348065 0.903206 0.251135
-9.60625935 2.35156012 0.77320200 0.934104 -0.228961 -0.273910
-9.66960812 2.29490900 0.80183202 -0.098319 -0.981973 -0.161437
-9.65859127 2.29532599 0.79425699 0.092474 -0.983589 -0.154924
-9.72239685 2.33289099 0.85933602 -0.847425 -0.432233 0.308295
-9.62665272 2.30404496 0.79212898 0.420914 -0.830793 -0.364162
-9.68494892 2.29712605 0.75470102 -0.270509 -0.962222 -0.030880
-9.69074821 2.29628706 0.79341900 -0.312517 -0.949905 -0.003706
-9.74252033 2.33422899 0.78053999 -0.834455 -0.548356 0.054695
-9.73417759 2.32376599 0.73817402 -0.695314 -0.673140 0.251834
-9.67826271 2.29670000 0.73254400 0.123629 -0.992313 -0.005470
-9.64315605 2.40305090 0.71329200 0.700138 0.655278 -0.283580
-9.68721867 2.29468894 0.70664102 -0.028010 -0.991558 -0.126606
-9.64842033 2.30427003 0.74088299 0.467856 -0.877761 -0.103183
-9.65671825 2.41741991 0.70638901 0.672338 0.736232 -0.076963
-10.08465195 2.22501397 0.75217301 0.590511 -0.803152 -0.079022
-9.62467575 2.31862211 0.76402098 0.721581 -0.618267 -0.311555
-9.66184807 2.29693508 0.75692302 0.223188 -0.969672 -0.099615
-9.61313725 2.31096411 0.79265797 0.507563 -0.747382 -0.428718
-9.67544842 2.29359889 0.77453500 -0.013244 -0.999413 -0.031582
-9.65032101 2.28940392 0.80886799 0.020827 -0.961730 -0.273205
-9.62306976 2.28977990 0.82249099 0.337243 -0.888822 -0.310263
-9.59920025 2.30131102 0.84626400 0.638937 -0.724551 -0.258429
-9.62772465 2.28402495 0.83715397 0.298517 -0.924117 -0.238528
-10.07445240 2.23766303 0.75820702 0.701919 -0.710497 -0.050035
-9.58184624 2.32346606 0.85112703 0.889958 -0.297650 -0.345513
-9.59880257 2.32154107 0.80540699 0.638083 -0.690304 -0.341072
-9.59080124 2.36794209 0.81598198 0.894116 0.416102 -0.165577
-9.57789516 2.36139488 0.86143500 0.897217 0.193403 -0.396986
-9.59399509 2.37851310 0.82468301 0.813637 0.559842 -0.156756
-9.71631432 2.35497499 0.86684501 -0.931153 -0.045709 0.361752
-9.61378670 2.33551407 0.76440501 0.910028 -0.257720 -0.324698
-9.60208607 2.36947107 0.78982598 0.903094 0.293174 -0.313799
-9.60881615 2.39479709 0.82533002 0.731423 0.661474 -0.165749
-9.64534664 2.40074301 0.88503802 -0.189637 0.963878 0.187021
-9.62287235 2.39345908 0.73922402 0.875854 0.336633 -0.345772
-9.59080601 2.38013291 0.85545099 0.815497 0.532914 -0.225759
-9.59249401 2.31483793 0.83361298 0.858164 -0.391199 -0.332442
-9.49304867 2.76262808 0.91465998 0.583203 -0.810241 -0.058178
-10.06724834 2.24020791 0.88963801 0.724794 -0.688060 -0.035321
-9.56569099 2.70256710 0.76459199 0.000000 0.000000 0.000000
-9.51853561 2.87208605 0.77739501 0.583113 0.643608 -0.495730
-9.51681137 2.82438707 0.73512298 0.905587 0.244318 -0.346727
-9.57553577 2.69331098 0.72291702 0.658602 -0.752490 -0.001381
-9.56109047 2.70721102 0.72251701 0.738825 -0.669152 -0.079834
-9.52226257 2.76139593 0.71772599 0.887895 -0.374557 -0.267114
-9.51214027 2.76172304 0.78383201 0.826406 -0.556207 -0.087671
-9.53497791 2.73212194 0.78399402 0.777431 -0.600256 -0.187866
-9.45646286 2.80315399 0.89146203 0.787454 -0.570011 -0.234528
-9.50150299 2.78240800 0.78264803 0.930443 -0.324056 -0.171068
-9.48880291 2.78040409 0.82582599 0.000000 0.000000 0.000000
-9.47807598 2.82996988 0.81192201 0.921671 0.024769 -0.387180
-9.53183746 2.73369002 0.86051899 0.000000 0.000000 0.000000
-9.49558926 2.76235199 0.86686802 0.792016 -0.609135 -0.040797
-9.50404739 2.85131001 0.78059202 0.851182 0.434087 -0.295056
-9.48998547 2.80720806 0.79490298 0.929839 -0.150598 -0.335737
-10.10382557 2.21052003 0.86636198 0.326404 -0.935510 -0.135205
-9.51944542 2.28695703 1.05788803 0.901102 -0.361906 -0.238829
-9.55753136 2.34728003 0.92953098 0.917746 0.306876 -0.252128
-9.56460285 2.36385298 0.92988598 0.818496 0.569077 -0.078839
-9.56178284 2.73041606 0.93764699 0.000000 0.000000 0.000000
-9.46869087 2.81499505 0.84694397 0.914257 -0.277620 -0.295062
-9.57628345 2.37750912 0.93184900 0.738126 0.674661 -0.001380
-9.56184673 2.34027791 0.90829098 0.965018 0.119822 -0.233202
-9.64936447 2.27455401 0.86574602 -0.080078 -0.983643 -0.161351
-9.59269142 2.26664996 0.94896698 0.227696 -0.897564 -0.377535
-9.56166458 2.30671310 0.91768998 0.891920 -0.315235 -0.324199
-9.62019253 2.26911402 0.92543900 0.010552 -0.976654 -0.214559
-9.58728695 2.38991594 0.91206402 0.562616 0.824888 0.054993
-9.63577747 2.39856696 0.90760797 -0.146552 0.957212 0.249535
-9.61118698 2.39600301 0.90849698 0.290241 0.956161 0.038950
-9.57623386 2.29459500 0.90590298 0.725062 -0.577758 -0.374806
-9.57933140 2.30729699 0.88460797 0.829081 -0.445218 -0.338240
-9.59731960 2.29344702 0.86919397 0.567548 -0.757267 -0.323165
-9.68118477 2.29412103 0.90126503 -0.704922 -0.701979 0.101544
-9.70823097 2.32919788 0.88922399 -0.909365 -0.379969 0.169350
-9.71814632 2.33669996 0.87382102 -0.942600 -0.066490 0.327237
-9.72557735 2.34465694 0.85336000 -0.935020 0.003786 0.354576
-9.70641804 2.34695601 0.90185398 -0.882624 0.366628 0.294208
-9.70681572 2.33995199 0.89750201 -0.956433 -0.238110 0.168939
-9.69164276 2.29179811 0.85414302 -0.480426 -0.877010 0.006654
-9.60732937 2.30283809 0.81779301 0.615642 -0.722289 -0.315093
-9.67235947 2.28680611 0.83886802 -0.340264 -0.921961 -0.184957
-9.66475677 2.40354800 0.85368502 -0.274204 0.915463 0.294515
-9.67042828 2.69640994 0.83734101 0.000000 0.000000 0.000000
-10.05173206 2.35913992 0.93082398 0.809583 0.554405 -0.192902
-9.68621635 2.73983097 0.89735699 -0.560626 -0.654905 0.506752
-9.70195007 2.33440590 0.96648002 -0.946077 0.104825 0.306513
-9.51985931 2.33804989 1.06090105 0.959500 0.240862 -0.146097
-9.52500916 2.34066296 1.05352497 0.828828 0.543228 -0.133967
-9.70652771 2.77304792 0.88651597 -0.930727 0.182796 0.316754
-9.68624592 2.38314509 0.89327598 -0.543654 0.779609 0.310887
-9.70782375 2.77617192 0.87654299 -0.866555 0.443039 0.229780
-9.59082127 2.74468398 1.00605094 0.000000 0.000000 0.000000
-9.47737503 2.79278588 0.85409898 0.867404 -0.483166 -0.118999
-9.54395676 2.72884107 0.88209403 0.504056 -0.859026 0.089452
-9.72519112 2.75108695 0.85670298 -0.880767 -0.017428 0.473228
-9.72833157 2.75828505 0.84824997 -0.873086 -0.020242 0.487147
-9.67598629 2.80891299 0.86679602 -0.753067 0.656264 -0.046978
-9.43376064 2.87321496 0.89021403 0.880767 -0.017428 -0.473228
-9.44458771 2.84319401 0.87881601 0.921474 -0.206513 -0.328996
-9.43208313 2.80837393 0.97102398 0.478319 -0.793978 -0.375247
-9.44896412 2.80404401 0.92442000 0.848884 -0.496799 -0.180518
-9.65527153 2.84268594 0.88602102 -0.824067 0.565590 -0.031962
-9.63690472 2.88099909 0.94719398 -0.923643 0.347938 0.160694
-9.63948822 2.86644912 0.97463697 -0.833509 0.537606 0.127443
-9.68275356 2.78581905 0.98400998 -0.937941 -0.140215 0.317185
-9.67707825 2.81520200 0.94721502 -0.933678 0.343561 -0.101047
-9.65717793 2.81326509 1.05324304 -0.902942 -0.248125 0.350899
-9.63973236 2.80578089 1.08360505 -0.839897 -0.406604 0.359507
-9.90460110 2.70276690 1.06070304 0.992850 -0.111065 0.043753
-9.93027878 2.64546299 1.06392801 0.000000 0.000000 0.000000
-9.66743469 2.74752402 0.94566798 -0.618174 -0.741492 0.260866
-9.51080704 2.74875689 0.93898600 0.581331 -0.812174 -0.049265
-9.48119831 2.77335405 0.92131197 0.616887 -0.786775 -0.020888
-9.49231911 2.76718211 0.93079501 0.630467 -0.775852 -0.023765
-9.62473106 2.72269392 0.92046702 0.000000 0.000000 0.000000
-9.63407707 2.73940492 0.96507800 0.000000 0.000000 0.000000
-9.61633873 2.39325595 0.92518598 0.169659 0.967445 0.187791
-9.70320034 2.34817100 0.94605303 -0.887895 0.416886 0.194547
-9.57609367 2.37326407 0.95561302 0.517649 0.855541 0.009461
-9.58799553 2.37714791 0.95076799 0.393373 0.914214 0.097315
-9.64535618 2.36916709 0.99584001 -0.269318 0.944664 0.187292
-9.92569542 2.62246704 0.92855501 0.843061 -0.490646 0.220259
-9.91134834 2.67716098 0.98611099 0.951080 -0.302441 -0.063062
-9.90943146 2.67866397 1.04258895 0.934795 -0.313439 0.167076
-9.66979218 2.36099792 0.99329501 -0.654724 0.729019 0.199668
-9.63847542 2.34477091 1.08892596 -0.648726 0.694023 0.312229
-9.68335724 2.32135296 1.03174400 -0.963804 0.090396 0.250818
-9.66228104 2.29940391 1.06323898 -0.882274 -0.386277 0.269041
-9.62702560 2.26118803 0.97313499 -0.188935 -0.972571 -0.135678
-10.03805065 2.27807593 0.98962098 0.948665 -0.316222 -0.006200
-9.66908169 2.31342292 1.06205904 -0.954373 0.067895 0.290796
-10.03593922 2.34386301 0.94042099 0.934922 0.346120 -0.078242
-9.67350960 2.29714489 1.02920794 -0.882719 -0.409355 0.230728
-9.65695190 2.27401304 1.02171099 -0.675770 -0.721124 0.152691
-9.66128254 2.31587410 1.09310603 -0.870079 0.423730 0.251825
-9.58335876 2.23866391 1.01033700 0.191710 -0.918787 -0.345078
-9.70392418 2.31795192 0.93185002 -0.927945 -0.362289 0.087542
-9.69197845 2.33099699 0.98922801 -0.834433 0.452441 0.314673
-9.68898010 2.31487489 0.99211198 -0.940741 -0.151118 0.303596
-9.67032528 2.28457594 0.92822099 -0.447756 -0.885563 -0.123666
-9.62369823 2.26152492 0.95154500 -0.017516 -0.979705 -0.199678
-9.69185734 2.34032702 0.97326100 -0.864066 0.220900 0.452320
-9.65783215 2.27705693 0.92621303 -0.360635 -0.919129 -0.158567
-9.57589912 2.26340890 0.96535999 0.491816 -0.788518 -0.369265
-9.55568981 2.24385095 1.07146204 0.490724 -0.861300 -0.131728
-9.53338432 2.32204604 1.00736904 0.954360 0.147746 -0.259554
-9.56240845 2.36346602 0.95719099 0.797328 0.599785 -0.067279
-9.55801487 2.32479000 0.91506100 0.928104 -0.147999 -0.341642
-9.55776501 2.28412008 0.97468501 0.764441 -0.580085 -0.281302
-9.56297112 2.26467609 1.00268304 0.676518 -0.660294 -0.326091
-9.55616760 2.36903811 0.99619901 0.565760 0.822539 0.057846
-9.51163197 2.32453489 1.10247898 0.888414 0.429039 -0.163237
-9.57212353 2.26196098 0.98389202 0.608080 -0.706422 -0.362226
-9.52553940 2.28941202 1.03591001 0.944432 -0.198756 -0.261809
-9.52855110 2.33180189 1.03445697 0.825615 0.495991 -0.268986
-9.53960514 2.34931302 1.02451503 0.812195 0.547051 -0.202668
-9.55512333 2.36505508 1.01019502 0.551766 0.833809 -0.017799
-9.55142975 2.35012698 0.96068001 0.868001 0.478051 -0.134316
-9.55933380 2.35766196 1.10229897 0.088855 0.979842 0.178928
-9.55550671 2.36140490 1.03693795 0.323840 0.935992 0.138008
-9.54361916 2.33500004 0.97844899 0.941511 0.222589 -0.253005
-9.37242794 2.87155008 1.04121006 0.854190 -0.412421 -0.316653
-9.39818668 2.83201504 1.02372396 0.000000 0.000000 0.000000
-9.40285778 2.84331894 0.98115301 0.859679 -0.393570 -0.325660
-9.39070988 2.86111307 0.99745101 0.892650 -0.144252 -0.427044
-9.38411236 2.84632897 1.05197704 0.769736 -0.614878 -0.171558
-9.35867691 2.86090398 1.08820295 0.796041 -0.548940 -0.254921
-9.31878662 2.87015700 1.19971299 0.655947 -0.712849 -0.248154
-9.37976742 2.84468293 1.08044398 0.682976 -0.704560 -0.192713
-9.35225964 2.86067605 1.12488103 0.699492 -0.705432 -0.114354
-9.30307961 2.95337009 1.26088095 0.869694 0.482531 0.103908
-9.57445431 2.34989500 1.15477502 0.165882 0.973768 0.155752
-9.44995308 2.29104090 1.33885002 0.629141 0.777010 -0.020925
-9.52788639 2.34238505 1.13875604 0.411772 0.911128 0.016994
-9.47940254 2.30760908 1.23753095 0.797034 0.579249 -0.170901
-9.59779453 2.35440993 1.12940001 -0.187014 0.968605 0.163799
-9.64310455 2.78871799 1.04694498 -0.670932 -0.674165 0.308790
-9.52065754 2.32947993 1.07334197 0.907905 0.412437 -0.074865
-9.55688763 2.33379793 1.21124303 0.015539 0.971758 0.235469
-9.47233963 2.26407504 1.23554504 0.937868 -0.166640 -0.304359
-9.48071098 2.28155589 1.21305096 0.968946 0.084201 -0.232497
-9.49400139 2.31401896 1.18253899 0.741946 0.667031 -0.067712
-9.54552174 2.34184003 1.14359105 0.172883 0.979671 0.101768
-9.60296059 2.35229397 1.14351404 -0.232049 0.932414 0.277052
-9.61997700 2.35108709 1.10805500 -0.357949 0.925729 0.122059
-9.53757477 2.34520197 1.13604605 0.344386 0.933995 0.095142
-9.55630875 2.34986091 1.12679303 0.170258 0.965659 0.196251
-9.51839447 2.27143908 1.08588803 0.862319 -0.401186 -0.308959
-9.53620625 2.34966397 1.04566205 0.551089 0.834192 0.020614
-9.56905079 2.36170197 1.06386900 0.248403 0.967914 0.037933
-9.51726723 2.33412504 1.11391401 0.724899 0.688443 -0.023836
-9.52220058 2.33808494 1.09110105 0.731560 0.681775 0.001383
-9.49866486 2.31287694 1.14973700 0.965621 0.178529 -0.188954
-9.53679657 2.25753808 1.06600404 0.633039 -0.710357 -0.307660
-9.52573872 2.27023602 1.05682302 0.821049 -0.503223 -0.269528
-9.51850414 2.30133700 1.07101595 0.989384 -0.037658 -0.140362
-9.52224255 2.27092910 1.07183802 0.795541 -0.483753 -0.364824
-9.63999176 2.26966596 1.08386695 -0.675109 -0.737124 0.029598
-9.52468395 2.22972202 1.16050804 0.518834 -0.853655 -0.045657
-9.50897121 2.32784295 1.18557000 0.647420 0.759391 -0.064598
-9.49440098 2.24302697 1.20579600 0.626419 -0.704518 -0.333548
-9.63646698 2.28678298 1.15557396 -0.969296 -0.020521 0.245040
-9.56211090 2.23351598 1.09795403 0.285497 -0.909199 -0.303066
-9.55445766 2.23633599 1.08950698 0.392106 -0.907365 -0.151463
-9.54966354 2.23655009 1.10292995 0.251363 -0.911011 -0.326918
-9.61357117 2.28679109 1.25878000 -0.869999 0.353198 0.344024
-9.62763023 2.30889010 1.18403900 -0.845888 0.361183 0.392454
-9.61930656 2.29005694 1.24837995 -0.977010 0.012933 0.212802
-9.58338737 2.30215001 1.26993001 -0.525866 0.779953 0.339320
-9.62088108 2.27408099 1.23515606 -0.987081 0.001120 0.160219
-9.62507820 2.28267288 1.21214902 -0.974090 0.090584 0.207227
-9.55337811 2.22755194 1.11543202 0.148752 -0.879512 -0.452031
-9.63917732 2.33757496 1.10747504 -0.668345 0.625226 0.402997
-9.65661526 2.32877493 1.09212303 -0.809697 0.503496 0.301466
-9.66213036 2.30936599 1.08684802 -0.958028 -0.067431 0.278630
-9.65224648 2.31638288 1.11435604 -0.886546 0.270598 0.375250
-9.64881134 2.30772591 1.12499404 -0.882274 0.269041 0.386277
-9.63637733 2.29947305 1.17847502 -0.936535 0.086593 0.339711
-9.64137077 2.30778790 1.16735399 -0.872654 0.300022 0.385308
-9.64372158 2.29432201 1.12541795 -0.928044 -0.371477 0.027181
-9.58495331 2.23547602 1.17394304 -0.264503 -0.944262 0.195979
-9.60431671 2.23791790 1.09117496 -0.398974 -0.915918 -0.043741
-9.64330196 2.29888892 1.14904201 -0.979245 -0.053936 0.195370
-9.64532948 2.32294297 1.12165201 -0.845689 0.354846 0.398615
-9.60300255 2.25184488 0.98847997 -0.077093 -0.918357 -0.388172
-9.64141273 2.26190090 1.00351906 -0.479626 -0.877299 -0.017465
-9.65923119 2.34321404 1.05599594 -0.725697 0.591973 0.350617
-9.66211033 2.32506609 1.07722402 -0.877205 0.371184 0.304522
-9.59056282 2.35556602 1.10306799 -0.075560 0.982281 0.171509
-9.90732765 2.69647908 1.09208405 0.996943 -0.057370 0.053040
-9.62392044 2.87033200 1.16809106 -0.945644 -0.003738 0.325182
-9.62259102 2.83359098 1.14302599 -0.873700 -0.424112 0.238282
-9.60746288 2.79000711 1.10100806 -0.116504 -0.858678 0.499098
-9.44180965 2.79684901 1.04553199 0.000000 0.000000 0.000000
-9.90189743 2.69883108 1.03812099 0.990300 -0.137635 -0.019023
-9.91155148 2.78021693 1.12301898 0.810829 0.491555 -0.317693
-9.90165424 2.72260594 1.12927997 0.985174 -0.163217 -0.052840
-9.64470291 2.85420108 1.11256194 -0.931252 0.167931 0.323371
-9.65672016 2.83049202 1.07432604 -0.962811 -0.061670 0.263043
-9.91283989 2.79629397 1.13136697 0.830846 0.453903 -0.321973
-9.57868385 2.79948902 1.16802096 -0.244822 -0.935919 0.253216
-9.56883526 2.79542303 1.14055097 -0.181953 -0.982544 0.038738
-9.54900646 2.79634905 1.14495802 -0.079742 -0.993971 0.075250
-9.90013981 2.78582501 1.15131795 0.857493 0.411042 -0.309436
-9.59452248 2.85368299 1.20896196 -0.719549 -0.368790 0.588424
-9.58911705 2.80232310 1.16283405 -0.436416 -0.880179 0.186616
-9.62988758 2.85561705 1.14545000 -0.943159 0.093919 0.318796
-9.91268826 2.80606008 1.19091904 0.795537 0.604720 -0.037883
-9.89518547 2.80108404 1.24913800 0.938060 0.327042 -0.114398
-10.02251053 2.82512093 1.21777296 -0.730381 0.682717 -0.021028
-9.90272141 2.75067997 1.09695697 0.910585 0.356441 -0.209247
-9.91730595 2.77162600 1.04939103 0.737068 0.669929 -0.089032
-9.97249508 2.63177705 1.17876899 0.406402 -0.892919 0.193733
-9.92587376 2.79840207 1.11593795 0.682681 0.630041 -0.370128
-9.94855404 2.80289602 1.08644605 0.423621 0.894311 -0.144060
-9.92310047 2.77821898 1.08538699 0.768024 0.619570 -0.162088
-9.90458107 2.76329303 1.12392902 0.940218 0.277509 -0.197432
-9.90875435 2.68697405 1.12196100 0.949120 -0.314715 0.011195
-9.90382767 2.72557592 1.06740606 0.999731 0.023017 0.003002
-9.98079681 2.59259892 1.01222599 0.113155 -0.946508 0.302190
-9.90954113 2.69545293 1.17958605 0.870511 -0.488538 0.059510
-9.89388275 2.77821589 1.22901297 0.943200 0.277895 -0.182069
-9.90430069 2.70475602 1.15395403 0.961171 -0.275495 -0.015917
-9.99383831 2.62405300 1.16901004 -0.018654 -0.953848 0.299710
-10.05503845 2.73397708 1.20863903 -0.994373 0.070309 0.079237
-9.98192024 2.64667511 1.24322295 0.198599 -0.952464 0.231023
-10.04679108 2.68851495 1.20497596 -0.969821 -0.239084 0.047817
-9.98701954 2.60076404 1.07177603 0.183341 -0.978231 0.097208
-10.04448128 2.77253199 1.12817895 -0.821874 0.561879 -0.093887
-10.02465534 2.79595900 1.11388600 -0.636440 0.756807 -0.148954
-10.00348377 2.79842496 1.05487800 -0.347189 0.899736 -0.264454
-9.98308277 2.80384588 1.05135405 -0.036535 0.953686 -0.298578
-9.93478203 2.78838801 1.05797195 0.581356 0.784908 -0.214346
-9.99362659 2.79923511 1.03390706 -0.246279 0.917427 -0.312530
-10.05853367 2.69734192 1.12320602 -0.976326 -0.156663 0.149144
-10.03006458 2.79615092 1.13552701 -0.718724 0.656090 -0.230179
-10.00608540 2.81824493 1.14165795 -0.536652 0.825271 -0.175877
-9.96533585 2.82726407 1.13777900 0.073425 0.997096 0.020219
-10.02074242 2.81765890 1.19345999 -0.578782 0.794496 -0.183813
-10.01611805 2.82569408 1.24157906 -0.652022 0.749604 -0.113845
-10.02424526 2.83801508 1.28057694 -0.686700 0.673954 -0.272450
-10.00087547 2.82818794 1.17864001 -0.423932 0.887198 -0.182101
-10.04656410 2.77382588 1.16823304 -0.921175 0.385701 -0.051692
-10.03195953 2.80123711 1.15589905 -0.772976 0.621062 -0.129574
-10.03339672 2.80323601 1.16666400 -0.825078 0.559109 -0.081507
-10.03995228 2.78424001 1.13826799 -0.826242 0.546410 -0.136971
-10.04145527 2.79276705 1.19338906 -0.864905 0.490351 -0.107220
-10.02150059 2.81338096 1.17342198 -0.604001 0.781737 -0.155142
-10.01622677 2.61923003 1.14632499 -0.373261 -0.836293 0.401610
-10.04625225 2.66801000 1.14460099 -0.953102 -0.286323 0.098056
-10.00487041 2.63691592 1.20540500 0.001332 -0.872392 -0.488806
-10.02780914 2.62499905 1.15313101 -0.524519 -0.756549 0.390530
-10.02596283 2.64437890 1.19281697 -0.542522 -0.823498 0.165895
-10.05703545 2.73921800 1.18127894 -0.997557 0.052503 0.046074
-10.05355167 2.75746393 1.18647397 -0.973308 0.229498 0.001177
-10.04172611 2.64214993 1.13391805 -0.881952 -0.419483 0.214929
-10.05129147 2.71148610 1.16871905 -0.982539 -0.171137 -0.073002
-10.05726242 2.74823904 1.16327298 -0.992432 0.046186 0.113775
-10.05219746 2.72828603 1.23914301 -0.975347 -0.131804 0.176993
-10.05917454 2.75543499 1.14561903 -0.927190 0.374219 0.016718
-10.03425026 2.63150311 1.15418303 -0.874063 -0.479686 0.076918
-10.02748489 2.68853688 1.35534799 -0.853839 -0.488544 0.179677
-10.00468731 2.83664489 1.24131095 -0.540711 0.829483 -0.139966
-10.04572964 2.79161501 1.21029603 -0.948677 0.316226 0.003720
-10.04436970 2.62782407 1.11038804 -0.859981 -0.454928 0.231243
-10.04619026 2.61548996 1.05215001 -0.521798 -0.836958 0.165013
-10.03675938 2.61765909 1.11610699 -0.776727 -0.590685 0.218600
-10.03375530 2.78757095 1.09341300 -0.751329 0.655785 -0.073830
-10.04712391 2.76454091 1.09515595 -0.848864 0.527969 -0.026056
-9.99403763 2.60698795 1.10702205 0.212646 -0.930854 0.297141
-9.97868824 2.60715795 1.09008396 0.257519 -0.912229 0.318625
-10.04524040 2.76235199 1.03123701 -0.696887 0.699924 -0.156382
-10.03103065 2.76634598 0.96745598 -0.606480 0.786506 -0.116574
-10.06265354 2.65529490 1.00541699 0.000000 0.000000 0.000000
-10.06220722 2.72835994 1.05608404 -0.951142 0.290736 -0.103928
-10.00617027 2.78892589 1.02834594 -0.362167 0.911860 -0.193251
-10.06182194 2.71637893 1.02147400 -0.964818 0.261126 -0.030649
-10.04963207 2.74969697 1.00600302 -0.854880 0.516807 -0.045723
-10.06707191 2.70617199 0.98522401 -0.960520 0.277755 0.015907
-10.05599499 2.61591506 0.96686101 -0.950175 -0.210697 0.229728
-10.02565479 2.60069489 1.04188395 -0.367489 -0.900422 0.232792
-10.04945374 2.75964594 1.05087698 -0.764423 0.640150 -0.076587
-10.06428432 2.64469004 0.95587599 -0.954581 -0.186620 0.232268
-10.05385685 2.73071694 0.93416798 -0.846938 0.512273 -0.142380
-10.06823730 2.70305896 0.96021903 -0.928721 0.370724 -0.006370
-10.06865788 2.63202095 0.92787302 -0.981956 -0.149666 0.115596
-10.05874252 2.74091601 0.98870599 -0.856352 0.515989 -0.020422
-10.01338863 2.75804901 0.92399198 -0.359790 0.904572 -0.228692
-10.05006409 2.74320507 0.95248002 -0.751201 0.623668 -0.216184
-10.04452705 2.75668311 0.96134800 -0.670256 0.719336 -0.182518
-10.02041721 2.76792002 0.96129102 -0.424518 0.868676 -0.255315
-9.95991135 2.76655698 0.91735297 0.262835 0.920640 -0.288687
-9.94706440 2.76394796 0.92606997 0.478196 0.844864 -0.239862
-9.97734261 2.77606606 0.93900001 0.129749 0.958045 -0.255566
-9.91461658 2.72603202 0.93642801 0.927719 0.342521 -0.148380
-9.92485428 2.74477696 0.94639200 0.813367 0.564468 -0.140747
-9.93797112 2.78550911 1.03552401 0.474747 0.832753 -0.284848
-9.98363972 2.79428601 1.02621496 -0.091602 0.958593 -0.269645
-9.99263096 2.78563190 0.98959601 -0.094315 0.978671 -0.182506
-9.94916153 2.61099195 0.99661398 0.773184 -0.627025 0.095004
-9.92074776 2.65317798 0.97601002 0.922556 -0.385372 -0.019463
-9.91143417 2.74090004 0.99375898 0.910492 0.316123 -0.266592
-9.91225433 2.68172097 0.97260302 0.950488 -0.304825 -0.060451
-9.91779137 2.66480494 0.95237601 0.950488 -0.304825 -0.060451
-9.91078377 2.72041702 0.95954901 0.966927 0.254709 -0.013279
-9.90861893 2.69755101 0.93678898 0.995754 -0.020542 0.089737
-9.94489956 2.60374093 0.95035100 0.691446 -0.717648 0.082973
-10.15882492 2.42215109 0.95504701 -0.254671 0.964739 0.066490
-10.13362980 2.42477202 0.94717300 0.074346 0.996673 -0.033402
-10.10131741 2.41902995 0.95445198 0.280228 0.958807 -0.046495
-10.12001419 2.42209291 0.99796802 0.132197 0.989750 -0.054028
-10.08209801 2.40290093 1.00626194 0.631540 0.770914 -0.082754
-10.05433941 2.58865094 0.93472201 -0.751329 -0.655785 0.073830
-10.05247688 2.58228803 0.94738603 -0.780991 -0.563260 0.269797
-10.03661728 2.56588602 0.92061901 -0.565243 -0.818076 0.106074
-9.99545097 2.56816602 0.94478101 0.253160 -0.942087 0.219959
-10.04714108 2.57650900 0.95046598 -0.466213 -0.851939 0.238422
-10.03485680 2.56727600 0.94846702 -0.345141 -0.907270 0.240288
-10.04603291 2.60127091 0.99106300 -0.703234 -0.651973 0.283536
-9.95868492 2.59588194 0.97230798 0.528869 -0.825884 0.195484
-9.98827362 2.58033991 0.97061700 0.304017 -0.891083 0.336964
-10.01360893 2.56405592 0.93891102 -0.083062 -0.973191 0.214474
-10.05031967 2.58735895 0.96210802 -0.784980 -0.543936 0.296548
-10.04762363 2.57252908 0.93533802 -0.569913 -0.814787 0.106403
-10.04435825 2.37026811 1.08617699 0.799535 0.585930 -0.132020
-10.01347637 2.57031798 0.96638697 -0.026780 -0.939865 0.340494
-10.00382710 2.57508111 0.97374099 0.048142 -0.935511 0.350003
-10.01587582 2.60125399 1.09243095 -0.051546 -0.979369 0.195394
-9.99447536 2.58324790 0.98876101 0.112830 -0.931185 0.346646
-10.00572300 2.59536290 1.03303301 -0.008639 -0.953938 0.299880
-10.13500881 2.42530107 0.95834398 0.065574 0.990509 0.120794
-10.03283215 2.59752297 1.01021898 -0.419223 -0.846239 0.328833
-10.13180447 2.42256594 1.04881501 0.123898 0.992280 -0.005482
-10.12762547 2.42316604 1.02847803 0.031837 0.999260 0.021567
-10.09222317 2.41374302 1.11107898 0.374900 0.910879 -0.172482
-10.10771561 2.41969800 0.98814499 0.446377 0.891371 0.078772
-10.06183529 2.38934302 1.05909896 0.749078 0.661943 -0.026703
-10.13169384 2.42333388 1.07336795 0.148596 0.985490 -0.082025
-10.15454197 2.42311406 1.00414002 -0.155010 0.987767 -0.016972
-10.15180206 2.42242694 1.03991199 -0.207895 0.977700 0.029699
-10.03022099 2.34870100 1.04020202 0.871961 0.487474 0.045314
-10.06278896 2.38078189 0.99865103 0.840478 0.541762 0.009505
-10.04088783 2.26947999 0.96585298 0.906999 -0.411521 0.089461
-10.03355217 2.36556506 1.09926701 0.761651 0.642689 -0.082694
-10.04627705 2.37346005 1.03747797 0.794201 0.607653 0.001372
-10.04973984 2.35873508 0.99313802 0.835738 0.546390 -0.054779
-9.57938480 2.23437595 1.03574502 0.146126 -0.965982 -0.213369
-9.59102821 2.23744392 1.01864398 0.084903 -0.949605 -0.301731
-10.04054832 2.34523106 0.98337603 0.907751 0.392273 -0.148696
-10.04669285 2.26094604 0.97919101 0.786715 -0.607982 0.106946
-10.05519581 2.25122905 0.96035498 0.768018 -0.640246 -0.015277
-10.04729366 2.36592889 0.96364897 0.854638 0.519223 0.001342
-10.06974602 2.39628291 0.96764302 0.743713 0.666629 0.049962
-10.06290722 2.38344693 0.94243401 0.809792 0.563399 -0.163761
-10.03263760 2.32259488 0.96578598 0.987671 0.155351 0.019277
-10.17725563 2.41204309 0.97401601 -0.459279 0.888291 -0.001316
-10.18461227 2.41156101 0.92122900 -0.368883 0.929276 -0.019280
-10.16481209 2.41929793 0.98537397 -0.435148 0.900351 0.003920
-10.18190193 2.41416311 1.09288800 -0.498200 0.866018 0.042546
-10.00761890 2.26242590 1.19252801 0.827557 -0.511274 -0.231839
-10.14224625 2.42199898 1.16048503 -0.097814 0.994621 -0.034070
-10.15786552 2.42201209 1.17569399 -0.284258 0.957962 -0.038819
-10.19008446 2.40802789 1.18619800 -0.496736 0.867597 0.023010
-10.16540909 2.41895294 1.26185095 -0.322209 0.946568 0.013791
-10.06972504 2.22743511 1.15139401 0.461432 -0.887167 -0.003966
-10.02985954 2.36789489 1.15068102 0.730955 0.679053 -0.067761
-10.06640720 2.39837003 1.10547698 0.703572 0.709257 0.044062
-10.01525784 2.30552006 1.13436794 0.971373 -0.225120 -0.075869
-10.01554585 2.32768893 1.14174294 0.986640 0.156517 -0.045216
-10.06623554 2.39796209 1.08576500 0.688930 0.724826 0.001381
-10.13473034 2.42528391 1.09788704 -0.131881 0.990798 -0.030434
-10.09657574 2.42054391 1.13283300 0.331539 0.938693 -0.094535
-10.10638428 2.41698909 1.05517805 0.228646 0.973244 0.022745
-10.12145519 2.42577195 1.15293097 0.123218 0.991400 0.044087
-10.03364468 2.62543011 1.13888097 -0.782107 -0.572921 0.245091
-10.04496193 2.37902999 1.15959299 0.704459 0.689178 -0.169620
-10.05530930 2.37953496 1.12513995 0.679545 0.731265 -0.058903
-10.03312874 2.36627507 1.17048800 0.819033 0.573732 -0.004088
-10.02624321 2.36542296 1.23322701 0.964202 0.250261 -0.087655
-10.01703453 2.60694289 1.11442101 -0.268873 -0.903588 0.333520
-9.97280884 2.60571098 1.04614997 0.202718 -0.967107 0.153653
-10.02565861 2.33410311 1.05738604 0.981160 0.168998 -0.093618
-10.02884102 2.27366900 1.11955798 0.927129 -0.374688 0.006394
-10.02425957 2.33773494 1.08168602 0.927829 0.346040 -0.139243
-10.03583717 2.25505304 1.14708996 0.763527 -0.586477 -0.270317
-10.02303886 2.28683400 1.08730304 0.963329 -0.256972 -0.077218
-10.02299213 2.30779409 1.06906295 0.973102 -0.093448 -0.210569
-9.57525921 2.22585297 1.11877000 -0.223971 -0.900275 -0.373285
-10.01809120 2.31447196 1.11480701 0.969497 0.118169 -0.214738
-9.63261032 2.27889395 1.17603099 -0.941424 -0.219804 0.255747
-10.09132862 2.21957493 1.08960104 0.302048 -0.950220 0.076484
-10.01028538 2.26471806 1.21987104 0.803115 -0.589720 0.085070
-10.01721954 2.34159589 1.18516600 0.857732 0.507291 -0.083371
-10.01738358 2.25713611 1.17638695 0.669451 -0.682294 -0.293788
-10.02977180 2.25379801 1.16778100 0.668504 -0.681391 -0.298008
-10.02335453 2.26685596 1.16172695 0.722662 -0.561339 -0.403308
-10.04218292 2.25657296 1.06297100 0.773184 -0.627025 -0.095004
-9.63335133 2.28404593 1.18662000 -0.958573 -0.086207 0.271488
-9.57538795 2.21635008 1.13663495 -0.412197 -0.904038 -0.113179
-9.49696827 2.25718403 1.16908705 0.809721 -0.507845 -0.294015
-9.50789356 2.27037191 1.11548805 0.897232 -0.333681 -0.289191
-9.48677444 2.25945902 1.20277297 0.845065 -0.438814 -0.305464
-9.59273720 2.25225711 1.29793704 -0.929919 -0.045777 0.364905
-9.54544926 2.31229711 1.29491794 -0.399431 0.896179 0.193180
-9.60100937 2.23993397 1.11102796 -0.510363 -0.850604 0.126500
-9.55172920 2.22192097 1.16138995 0.094561 -0.957264 0.273319
-9.58098507 2.22609901 1.15200305 -0.491124 -0.848579 0.196750
-9.55843735 2.21336389 1.12879097 0.095723 -0.950678 -0.295038
-9.57409668 2.23074889 1.07441902 0.096854 -0.994147 -0.047870
-9.50542068 2.26382589 1.14117205 0.841502 -0.484131 -0.239775
-9.53371620 2.22817898 1.14363205 0.571165 -0.810257 -0.131353
-9.59998894 2.23912001 1.06045902 -0.361006 -0.932493 -0.011481
-9.57396126 2.23173594 1.10311496 -0.161110 -0.923231 -0.348838
-9.56524944 2.21105599 1.13041902 -0.176887 -0.963050 -0.203092
-9.55841827 2.21046901 1.13716698 -0.005347 -0.995648 -0.093041
-9.59758472 2.24123406 1.00688696 -0.082519 -0.947008 -0.310430
-9.61841679 2.24984097 1.00971699 -0.381758 -0.907926 -0.173006
-9.53131771 2.24863005 1.09417403 0.616214 -0.742942 -0.261376
-9.53552532 2.24077010 1.11727405 0.582126 -0.728881 -0.360364
-9.58483791 2.23130894 1.08656204 -0.033076 -0.997601 -0.060816
-9.59018135 2.23301911 1.12659502 -0.335651 -0.900491 -0.276505
-9.58904552 2.23350000 1.10408103 -0.135165 -0.959279 -0.248021
-9.58293533 2.23106408 1.11499095 -0.203400 -0.907366 -0.367851
-9.58085346 2.24931598 0.99052000 0.450074 -0.825926 -0.339530
-9.56331539 2.22958708 1.10995400 -0.060142 -0.918171 -0.391593
-9.56313133 2.21378708 1.12651801 -0.050706 -0.937402 -0.344538
-9.55175495 2.21320105 1.13772094 0.304986 -0.942067 -0.139616
-9.60709381 2.24035406 1.02961898 -0.287560 -0.950141 -0.120590
-9.48249054 2.21999598 1.29637301 0.245401 -0.929121 -0.276609
-9.54879475 2.22450709 1.29335904 -0.186312 -0.981400 -0.046281
-9.56055069 2.21024704 1.14302897 0.097201 -0.994948 0.025119
-9.56883717 2.21227598 1.14226699 -0.122319 -0.989038 -0.082711
-9.54856110 2.21508503 1.14597201 0.141719 -0.979710 0.141719
-10.05414867 2.22784209 1.23719096 0.379920 -0.922279 -0.071151
-10.08923244 2.21720600 1.12266302 0.400146 -0.916295 -0.016944
-10.12042236 2.21233797 1.18957901 0.095557 -0.991260 0.090952
-10.10778618 2.21024108 1.05563605 0.202345 -0.964726 0.168403
-10.10960102 2.21116996 1.31016099 0.022971 -0.994321 -0.103917
-10.13345146 2.21223998 1.13652396 -0.028515 -0.998025 -0.055974
-10.06890202 2.22652793 1.17084897 0.405957 -0.912397 -0.052252
-10.10070229 2.21562600 1.19349599 0.125165 -0.988454 0.085393
-10.10245132 2.21508002 1.15539205 0.242803 -0.970016 -0.010765
-10.11681366 2.21219802 1.15128398 0.077663 -0.996852 -0.015958
-10.10594559 2.20021701 1.01795805 0.296828 -0.935078 0.193705
-10.08103275 2.21586108 1.02628899 0.450556 -0.869886 0.200743
-10.12878323 2.20684695 1.05485106 0.152408 -0.981507 0.115830
-10.13407516 2.21421790 1.10739100 -0.106999 -0.993877 0.027577
-10.10597134 2.21504903 1.09627998 0.232116 -0.963474 0.133564
-10.06923485 2.22926307 1.09560502 0.445528 -0.895046 -0.019949
-10.07331181 2.22091603 1.02540004 0.465694 -0.857540 0.218529
-10.06421471 2.23398900 1.05826902 0.680473 -0.731615 0.041198
-10.11596203 2.20555496 1.07338095 0.212917 -0.966514 0.143235
-10.16912460 2.22001791 1.12396801 -0.237457 -0.953852 -0.183794
-10.01901340 2.27788496 1.16890895 0.884199 -0.114960 -0.452744
-10.02039623 2.24561095 1.21182203 0.657235 -0.753685 0.001378
-10.04513645 2.24414992 1.15156102 0.611920 -0.780828 -0.125940
-10.04214668 2.23949695 1.17871594 0.565692 -0.785075 -0.252289
-10.02645493 2.36126304 1.20679605 0.856776 0.508401 -0.086386
-10.01808357 2.26460195 1.16998398 0.708726 -0.614229 -0.347031
-10.19038010 2.22552204 1.18160295 -0.419001 -0.904878 0.075065
-10.07545185 2.21515989 1.01053298 0.504294 -0.863145 0.025826
-10.13082027 2.20163393 0.93674397 0.183805 -0.982957 -0.003425
-10.12966347 2.20282888 0.97267097 -0.033474 -0.996659 -0.074506
-10.07443905 2.22938490 0.95067000 0.656746 -0.722265 -0.216835
-10.11653137 2.19936204 0.99786502 0.042124 -0.996938 -0.065886
-10.17837811 2.20327711 0.92654300 -0.308862 -0.949654 0.052545
-10.04789162 2.25242090 1.02558100 0.899217 -0.428133 -0.090060
-9.60523987 2.26038694 0.95892501 0.008497 -0.962626 -0.270701
-9.63615704 2.26834297 0.93395799 -0.237218 -0.950228 -0.201974
-9.66337872 2.27303410 0.95362198 -0.496933 -0.859910 -0.116671
-9.62415218 2.25467610 1.07354999 -0.609934 -0.791075 0.046700
-9.64599705 2.26239300 0.96980000 -0.354917 -0.931823 -0.075769
-9.57299232 2.23379302 1.04622900 0.166265 -0.979115 -0.117001
-9.54774475 2.28094196 0.99944401 0.710219 -0.595403 -0.375612
-9.65312767 2.26602197 0.98298800 -0.410095 -0.912042 -0.001294
-9.58997059 2.24427104 0.99556601 0.107253 -0.929976 -0.351626
-9.58104515 2.23792791 1.01942205 0.336885 -0.897864 -0.283458
-9.55866146 2.25930095 1.01928401 0.657231 -0.692583 -0.297281
-9.57113171 2.24564290 1.00899303 0.460398 -0.803691 -0.376981
-9.57245731 2.24170589 1.02415800 0.326331 -0.895549 -0.302490
-9.58201218 2.23193598 1.04503202 0.144775 -0.984707 -0.096915
-9.47651482 2.20707011 1.34349799 0.206442 -0.812004 -0.545923
-9.56891155 2.23153496 1.06039703 0.210933 -0.971304 -0.109887
-9.60194874 2.23540998 1.03894901 -0.265310 -0.958999 -0.099653
-9.55184937 2.24909091 1.06018996 0.601580 -0.766353 -0.225398
-9.65053177 2.27810001 1.05396700 -0.753767 -0.631452 0.181944
-9.62910938 2.25440001 1.04592097 -0.606725 -0.792312 0.064241
-10.13686562 2.20327210 1.03837204 -0.100359 -0.983030 0.153561
-10.06921768 2.22511911 0.97653902 0.758480 -0.639269 -0.126662
-10.17303658 2.21698093 1.05057096 -0.394441 -0.912058 0.112104
-10.10813427 2.20390892 1.02861404 0.286326 -0.939205 0.189501
-10.15924454 2.21002412 1.02061498 -0.281161 -0.956460 0.078314
-10.08029747 2.21374702 0.98526800 0.483055 -0.850238 -0.209174
-10.08344078 2.22671700 0.86321002 0.560910 -0.820240 -0.112182
-10.13437462 2.20988488 0.85350698 0.168087 -0.977395 -0.128244
-10.09068012 2.22658110 0.80013603 0.473168 -0.878344 0.067992
-10.08629608 2.20579696 1.00652599 0.452996 -0.891465 -0.009245
-10.10654163 2.20909095 0.94194001 0.402911 -0.915238 0.001287
-10.17240047 2.20573902 0.95468098 -0.286194 -0.945390 0.155983
-10.15346146 2.20572710 0.98655301 -0.168812 -0.982939 0.073032
-9.48467541 2.22809601 1.24843395 0.715327 -0.685335 -0.136467
-9.46765327 2.28740907 1.25355399 0.965030 0.224094 -0.136011
-10.14882755 2.21294689 0.74896502 -0.145493 -0.989127 -0.021429
-10.13568115 2.21186399 0.77825898 -0.017184 -0.999705 -0.017184
-10.11829281 2.21719503 0.77762902 0.119957 -0.992171 0.034754
-10.13353920 2.21472192 0.76089197 -0.012883 -0.999913 -0.002973
-10.11184692 2.21682096 0.83792400 0.323249 -0.943573 -0.071978
-10.17029667 2.20176196 0.88875002 -0.102223 -0.991222 -0.083846
-10.15128803 2.20585108 0.84948498 0.068646 -0.993672 -0.088902
-10.16479969 2.19885206 0.92904699 -0.050662 -0.997080 0.057130
-10.17557430 2.20676804 0.83726501 -0.133302 -0.990079 -0.044434
-10.12008572 2.20839000 0.88241899 0.205750 -0.973883 -0.096017
-9.66351986 2.27961302 0.85556901 -0.326269 -0.928398 -0.177838
-10.09392262 2.21677089 0.69248497 0.297862 -0.953913 -0.036447
-10.04090691 2.28005099 0.83432901 0.860348 -0.506169 0.059959
-10.13000965 2.21270895 0.83659500 0.212616 -0.975605 -0.054673
-10.10585976 2.21708798 0.84835601 0.335102 -0.934759 -0.118032
-10.17468262 2.22200394 0.77337003 -0.261194 -0.964314 -0.043326
-10.15297031 2.21607900 0.79321098 -0.036052 -0.985020 -0.168628
-10.16339016 2.20386004 0.86127901 -0.009350 -0.998323 -0.057136
-10.15567207 2.20172191 0.88195097 0.020941 -0.993060 -0.115728
-10.10041714 2.21100903 0.91224903 0.402024 -0.915358 -0.022262
-10.15423870 2.20197105 0.90157998 0.055884 -0.996048 -0.069033
-10.14466286 2.19882989 0.91940498 0.044645 -0.996335 -0.072956
-10.14341640 2.20377707 0.90690398 0.093641 -0.990745 -0.098265
-10.08582973 2.22221994 0.93788898 0.581124 -0.811300 -0.063938
-10.15571499 2.19624400 0.91355300 0.026296 -0.998214 -0.053645
-10.13739681 2.20508695 0.89390302 0.164217 -0.979126 -0.119767
-10.09508133 2.21682692 0.89713597 0.524763 -0.851222 -0.006745
-10.11683178 2.20651388 0.89347500 0.192581 -0.977624 -0.084637
-10.07024956 2.23749590 0.85721999 0.721907 -0.690581 -0.044140
-10.03957462 2.26683998 0.93149298 0.706322 -0.706322 0.047088
-9.63150024 2.26842904 0.90871400 -0.050605 -0.992988 -0.106833
-9.60650539 2.27188110 0.91852999 0.138020 -0.966141 -0.217994
-10.05156517 2.25649405 0.89318800 0.805804 -0.555041 -0.206420
