-1.34636796 -2.88746405 0.01652200 0.998366 0.056902 -0.005173
-1.34755099 -2.87387896 -0.11019800 0.984913 0.050478 -0.165522
-1.32490003 -2.85924911 -0.06834700 0.966453 -0.248802 -0.063763
-1.34741199 -2.94611406 -0.23521100 0.941953 -0.329619 -0.063839
-1.33962095 -2.97942090 0.15410100 0.939428 -0.335041 -0.072264
-1.34323204 -2.99153709 0.15880699 0.898979 -0.430904 -0.078471
-1.35300195 -2.98849297 0.05534000 0.841486 -0.528644 -0.111522
-1.35217297 -2.97716904 -0.02621700 0.881790 -0.468921 -0.050583
-1.34960401 -2.97022605 -0.02824900 0.922813 -0.383079 -0.040809
-1.35180104 -2.98121095 -0.01864900 0.869012 -0.490818 -0.062569
-1.34930205 -2.88445592 0.02548000 0.997509 0.066925 -0.022308
-1.34325504 -2.95298195 -0.03374100 0.966208 -0.255941 -0.030615
-1.34045398 -2.89561296 -0.10535000 0.995888 0.003195 -0.090535
-1.35399306 -2.95717096 -0.25444400 0.902273 -0.422898 -0.084028
-1.34410799 -2.94930100 -0.09070700 0.941442 -0.332044 -0.058596
-1.39277303 -3.00852108 -0.25870499 0.692551 -0.720761 -0.029620
-1.34624898 -2.91314697 -0.34421301 0.995981 -0.088793 -0.011768
-1.34870100 -2.92749810 -0.34791800 0.979274 -0.201028 0.024688
-1.34171295 -2.93083906 -0.18599600 0.986179 -0.165678 -0.001127
-1.34181201 -2.92596102 -0.19647899 0.990809 -0.135260 0.001100
-1.35160995 -2.95309210 -0.23555200 0.904632 -0.421800 -0.061032
-1.34440696 -2.93558502 -0.25614801 0.966130 -0.249364 -0.066414
-1.34254801 -2.89852595 -0.20217900 0.996911 -0.020302 0.075864
-1.34517801 -2.93935394 -0.19070999 0.958406 -0.285196 0.011016
-1.35457206 -2.96253300 -0.23539400 0.882055 -0.467777 -0.056243
-1.36348903 -2.97434092 -0.28939599 0.849342 -0.524717 -0.057369
-1.37606096 -2.99105000 -0.22211100 0.768550 -0.637854 -0.049721
-1.34339702 -2.93977499 -0.19821800 0.964790 -0.262684 0.013316
-1.35209596 -2.95301509 -0.19649801 0.917575 -0.396612 0.027488
-1.34785497 -2.95787096 -0.09938600 0.910817 -0.409130 -0.054998
-1.36820996 -2.98938489 -0.14410201 0.759554 -0.649637 -0.032411
-1.35300505 -2.97621894 -0.07287800 0.857515 -0.509456 -0.071576
-1.35669005 -2.97557497 -0.10252800 0.840125 -0.537962 -0.069187
-1.36627805 -2.98336506 -0.10271100 0.793684 -0.604916 -0.064353
-1.39486802 -3.00926900 -0.15068400 0.694070 -0.719411 -0.026749
-1.35061800 -2.98495102 0.02350300 0.869489 -0.487420 -0.080066
-1.34091401 -2.96313691 0.05392100 0.955469 -0.287792 -0.065233
-1.34802794 -2.97047710 0.04633100 0.928408 -0.363057 -0.079042
-1.34489095 -2.96573806 0.04500700 0.940071 -0.332641 -0.074943
-1.35116804 -2.97685504 -0.00514400 0.901202 -0.431127 -0.044321
-1.34380603 -2.95312905 -0.01535300 0.966243 -0.254793 -0.038157
-1.34961998 -3.00224304 0.15462400 0.839123 -0.539133 -0.072167
-1.34010005 -2.89563704 0.03800300 0.997860 0.052183 -0.039403
-1.33719802 -2.97237706 0.19924700 0.960312 -0.273116 -0.056637
-1.34637201 -3.00532293 0.20355999 0.875556 -0.477450 -0.073775
-1.33593094 -2.95427108 0.15180200 0.986987 -0.150320 -0.057098
-1.34104800 -2.95280790 0.06824100 0.980995 -0.187140 -0.051255
-1.33938205 -2.98080206 0.18985300 0.951020 -0.305092 -0.049785
-1.34167099 -2.98472404 0.18709899 0.934752 -0.349378 -0.064602
-1.33471596 -2.91595888 0.11940400 0.997365 -0.022305 -0.069040
-1.34717703 -2.98556900 0.10186300 0.901939 -0.424200 -0.080996
-1.33902597 -2.94827890 0.05249100 0.982869 -0.179664 -0.041100
-1.33622599 -2.92250896 0.03135200 0.999780 0.000999 -0.020974
-1.37108803 -3.02910709 0.22116999 0.704179 -0.707059 -0.064802
-1.34623003 -2.98977900 0.12047600 0.893300 -0.445968 -0.055917
-1.33190703 -2.91200900 0.20487200 0.993394 -0.104155 -0.048158
-1.33983099 -2.99552989 0.25156900 0.915380 -0.399897 -0.046500
-1.33828199 -2.99083591 0.25637600 0.937633 -0.345308 -0.040092
-1.33362198 -2.92149091 0.15729100 0.997190 -0.063467 -0.039802
-1.33091402 -2.95009589 0.18316400 0.993250 -0.102131 -0.054993
-1.33065903 -2.94899893 0.18889099 0.992931 -0.102562 -0.059734
-1.38445997 -3.02948999 0.08264000 0.692573 -0.713247 -0.107799
-1.34908998 -3.00962090 0.21194200 0.846766 -0.526215 -0.078010
-1.35523903 -3.01389003 0.21466500 0.805706 -0.587404 -0.076118
-1.32868695 -2.93520594 0.22379000 0.996292 -0.080955 -0.029144
-1.33138204 -2.92719603 0.21180500 0.995522 -0.084329 -0.042712
-1.32649803 -2.92725992 0.22612700 0.996866 -0.075860 -0.022437
-1.33348298 -2.93928099 0.21096399 0.996115 -0.073099 -0.049097
-1.32980001 -2.91334200 0.24299900 0.997999 -0.063217 -0.001036
-1.37238204 -3.03826690 0.29670501 0.674572 -0.737059 -0.041184
-1.34961200 -3.02152705 0.28778100 0.791072 -0.611597 -0.012425
-1.33194804 -2.95442700 0.28385001 0.994786 -0.099369 -0.022931
-1.33231199 -2.98134899 0.27984500 0.969245 -0.245027 -0.022934
-1.35460699 -3.01765990 0.22617400 0.778830 -0.624493 -0.058591
-1.34179401 -2.99954104 0.19944599 0.900917 -0.427901 -0.072456
-1.35495806 -3.01399708 0.20932500 0.809231 -0.582932 -0.073046
-1.36004400 -3.02450299 0.20536301 0.744305 -0.663055 -0.079799
-1.39353502 -3.03780198 0.09194700 0.649562 -0.752667 -0.107524
-1.35697997 -3.01315188 0.16811100 0.781072 -0.619371 -0.079407
-1.33310902 -2.94719505 0.16115400 0.992720 -0.107047 -0.055214
-1.35365701 -3.01400304 0.17931700 0.797122 -0.598202 -0.082163
-1.35082603 -2.99111104 0.09020700 0.871573 -0.479152 -0.103793
-1.36805999 -3.02270198 0.12951900 0.725533 -0.681561 -0.095272
-1.37197196 -3.02318406 0.12369300 0.719663 -0.687286 -0.098604
-1.40550494 -3.04483104 0.07567800 0.618652 -0.779531 -0.097990
-1.40109706 -3.03852606 0.06983800 0.635686 -0.764878 -0.104235
-1.35403705 -3.00387311 0.11030100 0.810406 -0.580095 -0.082048
-1.35566795 -3.00522304 0.11453100 0.802088 -0.591088 -0.085267
-1.38902402 -3.04828095 0.23931500 0.628339 -0.774999 -0.067579
-1.36623204 -3.02332211 0.15092599 0.719451 -0.687083 -0.101518
-1.36633801 -3.01979399 0.14461100 0.729606 -0.676757 -0.098357
-1.38536799 -3.04036403 0.13978700 0.654789 -0.748961 -0.101529
-1.36133897 -3.02205300 0.21497600 0.761920 -0.643815 -0.070575
-1.36418295 -3.02437806 0.16724899 0.735815 -0.671704 -0.085966
-1.37311995 -3.03012896 0.16967399 0.697128 -0.711743 -0.086228
-1.35522902 -3.00498891 0.14636500 0.798533 -0.597101 -0.076256
-1.38320005 -3.05143499 0.29249099 0.632463 -0.772376 -0.058535
-1.39137805 -3.05366206 0.29413801 0.605566 -0.793648 -0.058419
-1.36165702 -2.99577904 0.02787100 0.811361 -0.577897 -0.087909
-1.41423702 -3.05560708 0.09663600 0.589754 -0.800486 -0.106829
-1.37277198 -3.02683711 0.13502300 0.704922 -0.701979 -0.101544
-1.38260806 -3.04751992 0.26810899 0.629880 -0.774909 -0.052608
-1.40594196 -3.06203198 0.22418700 0.575215 -0.815007 -0.069939
-1.44123900 -3.08513999 0.22961000 0.422766 -0.903984 -0.063891
-1.41393805 -3.07000804 0.21819299 0.554005 -0.830303 -0.060616
-1.43932498 -3.06240702 -0.00166900 0.480645 -0.873009 -0.082677
-1.43987405 -3.06251788 0.00362500 0.478515 -0.874720 -0.076730
-1.38975096 -3.02655697 0.07042500 0.683749 -0.722145 -0.104851
-1.42118502 -3.07641292 0.26126400 0.523554 -0.850251 -0.054450
-1.37946296 -3.02801394 0.10878400 0.694729 -0.709605 -0.117524
-1.43584096 -3.06448293 0.05305200 0.497231 -0.862718 -0.092080
-1.40196800 -3.04782009 0.10331000 0.611808 -0.782819 -0.113516
-1.37013197 -3.02931094 0.16438900 0.708468 -0.699667 -0.092409
-1.34445202 -3.01135612 0.28744799 0.845321 -0.534243 -0.004058
-1.35163403 -3.01170611 0.20633800 0.826397 -0.557138 -0.081637
-1.40011001 -3.02052498 -0.09230200 0.676937 -0.732020 -0.076826
-1.38947904 -3.04128909 0.17775500 0.637026 -0.767031 -0.076559
-1.39858305 -3.05383492 0.23623900 0.593969 -0.801930 -0.064097
-1.35699606 -3.02460790 0.25983101 0.752910 -0.655760 -0.055718
-1.35031295 -2.99987102 0.12054200 0.844500 -0.529409 -0.080902
-1.43072200 -3.06781912 0.12275900 0.501670 -0.859803 -0.095218
-1.42378998 -3.05650711 0.04312700 0.559237 -0.825267 -0.078665
-1.36580205 -3.01206589 0.10934400 0.744683 -0.659155 -0.104698
-1.36179996 -2.99157500 0.00062800 0.816178 -0.573183 -0.072899
-1.39360201 -3.03684711 0.10566500 0.645928 -0.755307 -0.110857
-1.40954494 -3.04620290 0.03771800 0.619387 -0.779699 -0.091815
-1.40359604 -3.05608201 0.15691800 0.584781 -0.805344 -0.097222
-1.42016804 -3.06200290 0.10949300 0.554101 -0.826088 -0.102718
-1.37874699 -3.03047204 0.14581300 0.687795 -0.717378 -0.110935
-1.37680697 -3.03180695 0.14979701 0.686559 -0.719041 -0.107782
-1.38136101 -3.03296089 0.12823699 0.680712 -0.725010 -0.104839
-1.41077995 -3.05550909 0.14337701 0.581165 -0.809017 -0.087968
-1.40897501 -3.05310798 0.13101900 0.591488 -0.800761 -0.094464
-1.40677500 -3.05125690 0.13644999 0.601260 -0.793430 -0.094629
-1.37525702 -3.00302601 -0.05846800 0.736618 -0.673191 -0.064869
-1.34393799 -2.96681190 0.02045800 0.934878 -0.352367 -0.042908
-1.34503305 -2.96055698 -0.08815300 0.914545 -0.400365 -0.057578
-1.38601506 -3.01761389 -0.00226200 0.694569 -0.714955 -0.080087
-1.40698802 -3.01729608 -0.27858299 0.660551 -0.750308 -0.026646
-1.38958597 -2.99826908 -0.31523100 0.728940 -0.684509 0.009719
-1.39009094 -3.00118804 -0.30763799 0.730304 -0.683008 -0.012519
-1.39670098 -3.01368904 -0.09676400 0.683467 -0.726816 -0.067913
-1.43060696 -3.04534888 -0.11071700 0.573443 -0.816980 -0.060884
-1.37576997 -2.98885107 -0.25600201 0.779928 -0.623658 -0.052563
-1.40889299 -3.02268291 -0.16891401 0.659482 -0.751502 -0.018125
-1.40918303 -3.02358603 -0.24444599 0.648193 -0.757909 -0.073625
-1.41777503 -3.02762699 -0.26140001 0.626473 -0.778516 -0.038011
-1.39563298 -3.00759006 -0.18275499 0.687265 -0.726298 -0.012546
-1.40045905 -3.01537490 -0.17420100 0.676907 -0.735768 -0.021022
-1.42901695 -3.04025102 -0.24323200 0.566618 -0.822510 -0.049210
-1.43161702 -3.04075408 -0.23871900 0.563316 -0.824605 -0.051977
-1.38919401 -2.99980807 -0.18671700 0.718099 -0.695703 -0.018197
-1.40612996 -3.02849197 -0.09074400 0.662254 -0.745937 -0.070698
-1.40931499 -3.02716494 -0.14953800 0.661251 -0.749040 -0.041063
-1.43133795 -3.04996896 -0.03998900 0.572349 -0.816206 -0.078895
-1.42837298 -3.04716301 -0.04525200 0.575215 -0.815007 -0.069939
-1.41156304 -3.03004408 -0.06080500 0.641990 -0.763175 -0.073576
-1.43301797 -3.05260205 -0.02680100 0.564597 -0.821882 -0.075756
-1.37611306 -2.99664593 -0.47093299 0.778821 -0.623917 -0.064543
-1.37866604 -2.99184203 -0.46416900 0.797104 -0.601025 -0.058255
-1.38694203 -3.01658511 -0.06709800 0.684623 -0.725150 -0.073818
-1.40503001 -3.02214599 -0.31693199 0.658132 -0.752747 -0.015305
-1.34553802 -2.91674995 -0.32914400 0.989605 -0.143599 -0.007792
-1.36299801 -3.00282907 0.05926300 0.781135 -0.612799 -0.119607
-1.35576904 -2.99806309 0.08751700 0.830708 -0.546557 -0.105832
-1.35820603 -2.96575093 -0.26409400 0.867406 -0.490640 -0.082945
-1.39131200 -2.99950600 -0.27732301 0.732990 -0.679322 -0.035308
-1.39972901 -3.00909209 -0.35329700 0.695044 -0.717785 0.041219
-1.37682498 -2.99779391 -0.41656300 0.763803 -0.645448 -0.001376
-1.35177302 -2.95204997 -0.42360699 0.944481 -0.325107 -0.047545
-1.37701499 -2.99436307 -0.37270099 0.760803 -0.645748 0.064719
-1.51050103 -3.06504798 -0.53654701 0.252464 -0.966752 -0.040641
-1.50409198 -3.06326103 -0.54238898 0.291580 -0.955526 -0.044179
-1.53532398 -3.06826305 -0.77844203 0.408766 -0.910618 -0.060708
-1.38497901 -2.99774289 -0.50146598 0.767053 -0.618199 -0.171638
-1.38389301 -2.99328089 -0.50889999 0.775767 -0.601334 -0.191264
-1.44005096 -3.03043103 -0.58899200 0.636623 -0.761276 -0.123169
-1.43443298 -3.02570796 -0.59571499 0.673357 -0.732294 -0.101667
-1.45828903 -3.05423808 -0.46843800 0.418466 -0.905999 -0.063650
-1.41154099 -3.02152395 -0.44992501 0.611542 -0.790666 -0.029388
-1.45230496 -3.04157305 -0.53461802 0.482128 -0.868403 -0.115882
-1.45091403 -3.04137802 -0.52947903 0.481478 -0.870638 -0.100841
-1.42428303 -3.03081489 -0.40839201 0.576843 -0.816854 -0.001364
-1.40295994 -3.01772904 -0.48704901 0.656737 -0.751583 -0.061794
-1.43506598 -3.03576899 -0.32257500 0.581753 -0.813364 0.001362
-1.43747306 -3.04220891 -0.26767600 0.545914 -0.837434 -0.026127
-1.43748701 -3.04090500 -0.35947901 0.525194 -0.850895 0.012214
-1.40003896 -3.01781201 -0.42034799 0.656236 -0.754181 -0.023787
-1.36116004 -2.96459293 -0.42915800 0.907181 -0.419820 -0.027811
-1.40583897 -3.01957107 -0.23576000 0.661405 -0.747488 -0.061693
-1.37396502 -2.99337101 -0.19401400 0.755638 -0.654323 -0.029550
-1.41818595 -3.02543998 -0.29699600 0.626484 -0.779285 -0.015280
-1.43555403 -3.03930712 -0.29277000 0.550533 -0.834678 -0.015027
-1.42274296 -3.02706289 -0.27605799 0.604529 -0.796310 -0.020846
-1.36693895 -2.98024607 -0.35318300 0.834809 -0.549617 0.031842
-1.35416806 -2.94733906 -0.46434501 0.959463 -0.266589 -0.091439
-1.43768799 -3.04250598 -0.41147801 0.510937 -0.859609 -0.004023
-1.42952704 -3.03642106 -0.40342101 0.549316 -0.835560 0.009541
-1.40309203 -3.01686502 -0.37979200 0.653561 -0.754109 0.064638
-1.34505904 -2.91600204 -0.37473300 0.998811 -0.044599 0.019707
-1.38512599 -2.98906898 -0.32000300 0.761815 -0.647613 0.015320
-1.37655199 -2.99024200 -0.30563700 0.780158 -0.625507 -0.009666
-1.40899897 -3.02098107 -0.32921800 0.648923 -0.760566 0.020933
-1.41151404 -3.02154994 -0.35550201 0.639215 -0.768462 0.029502
-1.39911699 -3.00792789 -0.28907600 0.692291 -0.720605 -0.038225
-1.41545296 -3.02811193 -0.36971301 0.605319 -0.795442 0.029357
-1.38312900 -2.99919200 -0.37219599 0.735465 -0.675252 0.055913
-1.39768898 -3.00555706 -0.52752203 0.728028 -0.643118 -0.237435
-1.38067305 -3.00083995 -0.48233199 0.756149 -0.648336 -0.088873
-1.41346204 -3.02706504 -0.40116900 0.604985 -0.796033 0.017997
-1.41645801 -3.03258491 -0.39697701 0.595161 -0.803260 0.023584
-1.63521099 -3.05543709 -0.30776399 -0.349887 -0.936044 0.037442
-1.38521504 -3.00066996 -0.39895400 0.734343 -0.678605 0.015328
-1.38865805 -3.00605989 -0.40219799 0.716748 -0.697264 0.009742
-1.40919399 -2.98980594 -0.58785099 0.768112 -0.628994 -0.119879
-1.40436304 -2.98554111 -0.58134001 0.771162 -0.622001 -0.135736
-1.41949797 -3.00196910 -0.59328902 0.753149 -0.646193 -0.123297
-1.41792297 -3.02681994 -0.33623701 0.629102 -0.776961 0.023713
-1.35920703 -2.96688604 -0.46504101 0.910044 -0.408231 -0.071881
-1.41828096 -3.02618909 -0.51882303 0.647521 -0.744573 -0.162259
-1.42243505 -3.02824807 -0.51029998 0.608647 -0.783393 -0.125876
-1.43817997 -3.04471588 -0.44638601 0.528319 -0.848345 -0.034486
-1.35000896 -2.88779306 -0.49998301 0.999274 -0.023670 -0.029844
-1.46699202 -3.05866194 -0.47189400 0.342196 -0.938113 -0.053346
-1.40276396 -3.01161504 -0.49947000 0.688693 -0.715467 -0.117509
-1.40021300 -2.99192500 -0.56033999 0.760582 -0.619222 -0.195139
-1.43702102 -3.02696800 -0.60838801 0.687196 -0.722064 -0.079907
-1.52335405 -3.06769300 -0.69733500 0.406977 -0.913437 0.001292
-1.51864803 -3.06180501 -0.69000602 0.424583 -0.905343 0.009145
-1.41473901 -3.02391911 -0.48601800 0.609135 -0.792016 -0.040797
-1.44233501 -3.03524494 -0.55412000 0.578087 -0.805773 -0.128628
-1.44351804 -3.03393888 -0.60789698 0.619371 -0.781072 -0.079407
-1.44312894 -3.03508711 -0.60977501 0.611198 -0.787478 -0.079470
-1.42804599 -2.99898100 -0.68965101 0.789779 -0.613353 -0.006892
-1.42728806 -2.99733996 -0.69703698 0.781253 -0.624176 0.006889
-1.40962505 -3.02051902 -0.40964001 0.623803 -0.781483 0.012448
-1.41123700 -3.02209496 -0.50294602 0.636181 -0.763122 -0.113657
-1.41180098 -3.02195001 -0.51312602 0.646896 -0.744311 -0.165910
-1.40986204 -2.99707103 -0.55577201 0.750128 -0.629489 -0.202612
-1.44365394 -3.03060389 -0.66699898 0.670902 -0.737558 -0.076799
-1.43738306 -3.03242493 -0.54810601 0.604768 -0.781846 -0.151567
-1.45450997 -3.02524209 -0.80588400 0.619884 -0.778152 -0.101116
-1.41949701 -2.99477792 -0.70941699 0.797081 -0.603682 0.015196
-1.43545699 -3.01546311 -0.73078799 0.727510 -0.686096 0.001380
-1.42473602 -3.00286698 -0.73701000 0.777723 -0.628533 0.009670
-1.42939496 -3.00462008 -0.80450398 0.759012 -0.645378 -0.085953
-1.42666495 -3.01832700 -0.60470802 0.717809 -0.688330 -0.104650
-1.42970800 -3.02107501 -0.59219801 0.690514 -0.711484 -0.130314
-1.45415103 -3.03279495 -0.78614700 0.584819 -0.807879 -0.072924
-1.40073502 -2.95742607 -0.75722200 0.905777 -0.421447 -0.044152
-1.52175498 -3.05838394 -0.77169001 0.400872 -0.914947 -0.046613
-1.41198301 -2.97827411 -0.65984303 0.792042 -0.603114 -0.094464
-1.43578398 -3.01376200 -0.79812598 0.714629 -0.694169 -0.086223
-1.48293900 -3.04123402 -0.74224800 0.446689 -0.894688 0.001310
-1.41410506 -3.02939200 -0.39145300 0.607909 -0.793230 0.035099
-1.41611397 -3.03245211 -0.39441600 0.595161 -0.803260 0.023584
-1.63408506 -3.05468798 -1.06432700 0.115012 -0.992680 -0.036849
-1.50192106 -3.06768298 -0.45195901 0.225836 -0.973842 -0.025093
-1.43999600 -3.02899599 -0.62059999 0.663808 -0.742589 -0.088994
-1.38404202 -3.00027609 -0.43247399 0.739496 -0.673148 -0.004147
-1.43685901 -3.03955889 -0.51946002 0.558909 -0.821581 -0.112365
-1.43074501 -3.03640008 -0.53209001 0.613609 -0.777835 -0.135860
-1.43525302 -3.03876996 -0.52661300 0.575766 -0.808428 -0.122221
-1.55015802 -3.07004094 -0.62404102 0.185046 -0.982697 0.008045
-1.45168805 -3.01972699 -0.85607499 0.644218 -0.754315 -0.126463
-1.55418098 -3.05785990 -0.88020599 0.294563 -0.933947 -0.202425
-1.42286599 -3.00900888 -0.61673599 0.761831 -0.642840 -0.079811
-1.40595603 -3.02162409 -0.49213001 0.646514 -0.759328 -0.073763
-1.42528498 -3.02430606 -0.55050403 0.683814 -0.711227 -0.162958
-1.44533098 -3.04021597 -0.54229599 0.539684 -0.832196 -0.127243
-1.51182306 -3.06534290 -0.52378798 0.243096 -0.968682 -0.050594
-1.61091197 -3.07603097 -0.65992999 -0.178571 -0.982732 0.048486
-1.38568902 -2.99686098 -0.46002099 0.754389 -0.655314 -0.038215
-1.37790704 -2.88811493 -0.74361902 0.958873 -0.213525 -0.187000
-1.79039502 -3.04177499 -1.12493098 -0.264950 -0.964225 -0.008469
-1.79026604 -3.04236603 -1.11407399 -0.265967 -0.963981 0.001203
-1.80172002 -3.03829002 -1.11702704 -0.306605 -0.951830 0.003694
-1.36382198 -2.87290192 -0.59269500 0.986025 -0.091585 -0.139162
-1.36337698 -2.95132399 -0.51067102 0.925266 -0.346453 -0.154443
-1.37209404 -2.93414092 -0.60974002 0.932182 -0.345002 -0.109589
-1.38594699 -3.00577402 -0.48150301 0.734474 -0.673146 -0.086151
-1.38146698 -3.00038409 -0.47537100 0.756511 -0.649472 -0.076664
-1.37191296 -2.98519301 -0.49583101 0.828859 -0.537196 -0.156248
-1.38023996 -2.97385502 -0.53134602 0.827079 -0.515204 -0.224733
-1.34589303 -2.89561105 -0.54216498 0.981822 -0.130503 -0.137821
-1.35189402 -2.95109606 -0.39569601 0.941881 -0.335757 -0.011318
-1.34999704 -2.93893790 -0.28769100 0.941929 -0.325394 -0.082995
-1.35224700 -2.91638708 -0.48387700 0.994250 -0.094637 -0.050102
-1.35703504 -2.94921303 -0.49298900 0.948911 -0.302343 -0.090310
-1.36099398 -2.96328902 -0.49159199 0.920601 -0.369625 -0.125977
-1.37044799 -2.98073292 -0.47428301 0.846575 -0.526096 -0.080829
-1.35449100 -2.94714904 -0.29915300 0.926712 -0.373569 -0.040634
-1.35473394 -2.94853306 -0.29296300 0.922921 -0.381120 -0.054446
-1.35208094 -2.93467093 -0.33949101 0.958429 -0.285203 0.008568
-1.36200202 -2.96482110 -0.27591500 0.867295 -0.491794 -0.077062
-1.35503805 -2.95654702 -0.27134100 0.903616 -0.419487 -0.086648
-1.34224999 -2.93726802 -0.21141499 0.979410 -0.201472 -0.012810
-1.34273899 -2.87170911 -0.26333201 0.981487 -0.185879 -0.046174
-1.36223495 -2.84472394 -0.37860501 0.995149 0.097901 0.009683
-1.36541200 -2.84718299 -0.37902099 0.996595 0.081897 0.009572
-1.36014104 -2.84847999 -0.38678101 0.995468 0.082497 0.047298
-1.35960102 -2.96530795 -0.28599599 0.873073 -0.481936 -0.074037
-1.35505295 -2.96443391 -0.40015700 0.909199 -0.415896 -0.019680
-1.34696198 -2.94068289 -0.38493600 0.966695 -0.255285 0.018148
-1.34299302 -2.92267108 -0.38454500 0.993104 -0.115733 0.018738
-1.34213495 -2.92452693 -0.23986700 0.987860 -0.148698 -0.044955
-1.35076797 -2.94647098 -0.36225599 0.945015 -0.325208 0.034434
-1.35999405 -2.96547604 -0.33096600 0.883251 -0.468854 -0.006641
-1.34842598 -2.92884111 -0.40233499 0.986194 -0.164934 -0.014787
-1.34681201 -2.93497109 -0.39581999 0.973308 -0.229498 -0.001177
-1.34765697 -2.92819595 -0.41810501 0.983105 -0.177783 -0.043563
-1.34484899 -2.89350700 -0.42335400 0.998629 0.052343 0.001026
-1.36038101 -2.95198011 -0.47750801 0.946613 -0.305829 -0.101943
-1.34250498 -2.90309691 -0.52247101 0.990213 -0.105391 -0.091493
-1.34725404 -2.90764189 -0.45079699 0.994215 -0.061371 -0.088151
-1.35604405 -2.94736099 -0.43990001 0.952468 -0.296923 -0.068125
-1.34331906 -2.89936996 -0.42711300 0.999471 0.017320 -0.027508
-1.34953296 -2.90482712 -0.46575600 0.996489 -0.022574 -0.080622
-1.34586501 -2.91243100 -0.38738701 0.999843 0.004994 0.016980
-1.34476805 -2.90698290 -0.44439900 0.995410 -0.051810 -0.080471
-1.33554304 -2.86420894 -0.26873600 0.977274 -0.202739 -0.061914
-1.34572697 -2.90477300 -0.34233800 0.999186 -0.021654 -0.034028
-1.35762095 -2.95908499 -0.28021500 0.893161 -0.441734 -0.084469
-1.35635996 -2.95751595 -0.28835899 0.897552 -0.435798 -0.066941
-1.34577894 -2.91622806 -0.28484201 0.985610 -0.162130 -0.047822
-1.34505999 -2.90017891 -0.35649699 0.998004 0.043576 -0.045702
-1.35239196 -2.94413400 -0.32916600 0.939829 -0.341642 0.001251
-1.34527194 -2.88515592 -0.30335301 0.993652 -0.099477 -0.052533
-1.34356296 -2.88205695 -0.29291999 0.990416 -0.129085 -0.049121
-1.35472906 -2.86334109 -0.37814200 0.991097 0.133100 -0.003300
-1.34561896 -2.88229704 -0.25418600 0.988111 -0.152801 -0.016978
-1.35931504 -2.77792096 -0.45080101 0.845969 0.530996 -0.048779
-1.34250700 -2.87639403 -0.29171300 0.989432 -0.140046 -0.037573
-1.34538603 -2.87257004 -0.26826099 0.982619 -0.177038 -0.055844
-1.34282398 -2.85310292 -0.33538601 0.980079 -0.010439 -0.198335
-1.34558702 -2.88802695 -0.38979599 0.992567 0.113533 0.043839
-1.35237002 -2.87396693 -0.44468001 0.996886 0.063723 -0.046442
-1.36334801 -2.84568906 -0.37551501 0.995286 0.095970 -0.014018
-1.35479295 -2.86658597 -0.49240199 0.999816 0.018940 -0.002990
-1.35576797 -2.85476398 -0.47906300 0.997655 -0.035211 -0.058686
-1.35561204 -2.86216402 -0.47648701 0.998322 -0.022045 -0.053538
-1.36081004 -2.85735989 -0.36963099 0.991227 0.119769 -0.055892
-1.35968399 -2.85049009 -0.36952701 0.994277 0.098652 -0.041013
-1.34600306 -2.85187101 -0.34757400 0.985097 0.048025 -0.165159
-1.34266305 -2.89385390 -0.29301700 0.991130 -0.129376 -0.030375
-1.40065002 -2.96774006 -0.78074503 0.892055 -0.449422 -0.047522
-1.40029001 -2.96764898 -0.78413498 0.889023 -0.454754 -0.053259
-1.40090895 -2.96311212 -0.78464299 0.900640 -0.430623 -0.058413
-1.37260199 -2.89042211 -0.69668502 0.937680 -0.321607 -0.131628
-1.34660995 -2.89334297 -0.53143102 0.991935 -0.078761 -0.099308
-1.35047996 -2.89893293 -0.48794201 0.999063 -0.036161 -0.023763
-1.34830999 -2.89396596 -0.48567700 0.999339 -0.023574 -0.027674
-1.34597194 -2.90195107 -0.53262901 0.986903 -0.110448 -0.117573
-1.35980296 -2.89946294 -0.56062102 0.973637 -0.148135 -0.173457
-1.35601902 -2.92068410 -0.51166898 0.981576 -0.170656 -0.085933
-1.35665798 -2.91012311 -0.50056899 0.995199 -0.086874 -0.045086
-1.34465504 -2.89730692 -0.52291799 0.995287 -0.065174 -0.071802
-1.36691499 -2.92902899 -0.57495201 0.945726 -0.288182 -0.150180
-1.37907195 -2.94010496 -0.64764601 0.892519 -0.423982 -0.153783
-1.35714996 -2.90284896 -0.55429798 0.975820 -0.149450 -0.159497
-1.37410605 -2.88522601 -0.74545997 0.958014 -0.211856 -0.193202
-1.37309504 -2.87850499 -0.73719198 0.941109 -0.256414 -0.220377
-1.40323806 -2.92555308 -0.88347697 0.959265 -0.181769 -0.216266
-1.38740206 -2.86467409 -0.78546000 0.966141 -0.084616 -0.243745
-1.35964799 -2.86574197 -0.58297598 0.976765 -0.092380 -0.193382
-1.34604204 -2.88918996 -0.51973599 0.998070 -0.030694 -0.053978
-1.38501799 -2.86383796 -0.77298498 0.957169 -0.124734 -0.261285
-1.38657701 -2.85136795 -0.77686298 0.945645 -0.141644 -0.292732
-1.38466001 -2.84442997 -0.79131299 0.951660 -0.095559 -0.291912
-1.36758697 -2.88246202 -0.63137698 0.993950 -0.108252 -0.018589
-1.40071297 -2.84780502 -0.87285602 0.966689 0.113954 -0.229188
-1.43702304 -2.81241107 -0.95378500 0.923313 0.355120 -0.146226
-1.44195104 -2.81239796 -0.96432501 0.902845 0.411405 -0.124966
-1.37456501 -2.83169603 -0.78519398 0.934602 -0.109239 -0.338506
-1.38366199 -2.89791012 -0.72667199 0.942099 -0.288509 -0.170918
-1.37200904 -2.87906098 -0.74947202 0.955230 -0.199620 -0.218376
-1.42033195 -2.83222198 -0.90874702 0.930148 0.242093 -0.276071
-1.39543295 -2.94573498 -0.80646300 0.935468 -0.339560 -0.097976
-1.38556397 -2.87073207 -0.79648000 0.971779 -0.047672 -0.231027
-1.35289001 -2.86698294 -0.54295802 0.994711 -0.025169 -0.099581
-1.36521399 -2.88325810 -0.67035800 0.979178 -0.201491 -0.024745
-1.36536205 -2.88391304 -0.66679299 0.982822 -0.182607 -0.026751
-1.36360598 -2.88905597 -0.67437100 0.965279 -0.250444 -0.074252
-1.36136496 -2.88257003 -0.67955798 0.962659 -0.263001 -0.064177
-1.36368597 -2.89952493 -0.63687903 0.990118 -0.138234 -0.023601
-1.37183201 -2.85693407 -0.61561102 0.997034 -0.061439 -0.046349
-1.37478995 -2.85965896 -0.61981100 0.998919 -0.046199 -0.005133
-1.36073804 -2.87801099 -0.66047198 0.985740 -0.168242 0.003387
-1.36174202 -2.88385391 -0.65546697 0.989493 -0.144231 -0.010063
-1.36759305 -2.92844510 -0.60163403 0.953581 -0.285683 -0.095228
-1.36490095 -2.89390802 -0.63720298 0.990711 -0.133516 -0.025806
-1.36846900 -2.88473701 -0.69915003 0.931759 -0.337951 -0.132718
-1.36692297 -2.88325596 -0.69289398 0.938481 -0.322729 -0.122880
-1.36203897 -2.87845993 -0.67436999 0.976005 -0.215698 -0.029793
-1.41965103 -2.89111304 -1.06301796 0.954691 -0.189327 -0.229609
-1.42056203 -2.88572598 -1.05887306 0.966769 -0.121970 -0.224681
-1.42027104 -2.89022493 -1.05636799 0.959062 -0.176425 -0.221526
-1.42519403 -2.83090901 -0.91509098 0.921765 0.259470 -0.288141
-1.42187297 -3.00025010 -0.62486500 0.770128 -0.628766 -0.107494
-1.41388702 -2.99189210 -0.62474000 0.775973 -0.619300 -0.119722
-1.36501098 -2.95543289 -0.52139801 0.907496 -0.379916 -0.179205
-1.38504303 -2.89475608 -0.76078999 0.972277 -0.158869 -0.171578
-1.38711905 -2.92530489 -0.80259502 0.975267 -0.191057 -0.111138
-1.42006600 -2.98594904 -0.78214198 0.829767 -0.556432 -0.043232
-1.43373299 -2.79925489 -0.91039801 0.918433 0.281153 -0.278269
-1.38010097 -2.86559606 -0.76696402 0.946617 -0.167050 -0.275700
-1.37821901 -2.85303402 -0.76546502 0.926218 -0.202213 -0.318167
-1.39540100 -2.85119390 -0.82048398 0.981685 0.008075 -0.190339
-1.38562405 -2.86725497 -0.78952497 0.966617 -0.063610 -0.248202
-1.39261997 -2.87453604 -0.82859099 0.986095 0.017100 -0.165299
-1.37472200 -2.80467010 -0.78550601 0.917618 0.019524 -0.396984
-1.46112204 -2.71125793 -0.41850099 0.407681 0.913049 0.011722
-1.35128605 -2.88215303 -0.49460900 0.999802 -0.015042 -0.013037
-1.33820200 -2.85174990 -0.52650899 0.999757 0.019091 -0.011053
-1.36491001 -2.88772988 -0.63902599 0.990760 -0.134850 -0.014488
-1.75072300 -2.81240892 -0.24049300 -0.888203 0.443393 0.120410
-1.35162997 -2.88016891 -0.53034002 0.996392 -0.046825 -0.070782
-1.35179102 -2.87576389 -0.52398902 0.997828 -0.037272 -0.054311
-1.35655999 -2.86204696 -0.39667600 0.992090 0.101373 0.074037
-1.35052598 -2.88274789 -0.50937003 0.998779 -0.028120 -0.040618
-1.35263205 -2.87145996 -0.41439700 0.994111 0.094837 0.052439
-1.34423006 -2.89259410 -0.45070100 0.996295 0.003183 -0.085942
-1.34396100 -2.89511395 -0.45392600 0.995634 -0.007486 -0.093040
-1.34583700 -2.89883709 -0.46193099 0.995555 -0.011813 -0.093434
-1.61927998 -2.66255307 -0.64288902 -0.349140 0.930587 0.110040
-1.35567200 -2.91159606 -0.49294701 0.996335 -0.072956 -0.044645
-1.35054302 -2.87539101 -0.46123600 0.996381 0.011722 -0.084186
-1.35145605 -2.87018299 -0.45633399 0.996996 0.033341 -0.069908
-1.35291302 -2.86603808 -0.46527699 0.997066 0.001048 -0.076536
-1.35663497 -2.85730600 -0.39905700 0.991715 0.097452 0.083694
-1.35059905 -2.94274497 -0.31580701 0.948412 -0.316137 -0.023931
-1.36195302 -2.85281801 -0.38373700 0.994060 0.098851 0.045538
-1.35915005 -2.85115099 -0.38962999 0.992995 0.108837 0.046003
-1.35877001 -2.85826302 -0.38748199 0.990823 0.129925 0.037283
-1.35087001 -2.87053895 -0.38985500 0.992280 0.119700 0.032442
-1.36317897 -2.87328410 -0.71849698 0.914682 -0.355313 -0.192640
-1.36553204 -2.87264609 -0.72799301 0.920253 -0.316292 -0.230421
-1.36210799 -2.88695788 -0.58552200 0.980361 -0.088682 -0.176149
-1.35973299 -2.84336901 -0.62281501 0.998347 -0.057019 -0.007257
-1.42206395 -2.99182391 -0.70298201 0.801726 -0.597499 0.015179
-1.41579902 -2.99133897 -0.70700002 0.806312 -0.591296 0.015161
-1.36073196 -2.85530400 -0.48804301 0.999736 0.000999 -0.022971
-1.38924599 -2.96645093 -0.59554100 0.815763 -0.568562 -0.106151
-1.36199105 -2.88730407 -0.57663399 0.973381 -0.095967 -0.208136
-1.36144805 -2.88303709 -0.56010401 0.974806 -0.121694 -0.186932
-1.36573899 -2.90593791 -0.56769300 0.965003 -0.184121 -0.186733
-1.36936104 -2.86172104 -0.60613400 0.995603 -0.069461 -0.062845
-1.36403799 -2.87587595 -0.64695698 0.989358 -0.145461 0.003331
-1.36792195 -2.91501307 -0.62093198 0.980680 -0.180174 -0.076181
-1.36362004 -2.90754199 -0.61780697 0.989067 -0.133032 -0.063624
-1.37667704 -2.95591092 -0.57657999 0.889425 -0.444008 -0.108535
-1.37554896 -2.95409608 -0.58233798 0.903008 -0.417520 -0.101259
-1.34899795 -2.91570592 -0.52275598 0.981314 -0.162130 -0.103617
-1.35046399 -2.91358399 -0.53045601 0.979897 -0.156144 -0.124178
-1.34293795 -2.90779996 -0.52511197 0.985931 -0.134716 -0.098951
-1.35725498 -2.94167399 -0.49845499 0.959234 -0.266525 -0.093992
-1.34958696 -2.93624401 -0.36109000 0.966895 -0.253031 0.033004
-1.34790003 -2.92568588 -0.28294700 0.981090 -0.185224 -0.056165
-1.34447706 -2.91876006 -0.28283399 0.984984 -0.165140 -0.050362
-1.35980296 -2.96375299 -0.44348300 0.919696 -0.390772 -0.038156
-1.35939896 -2.95910597 -0.31864199 0.898308 -0.439318 0.006557
-1.34251297 -2.91284299 -0.42929700 0.996671 -0.055431 -0.059779
-1.42281401 -3.03018188 -0.45864600 0.585190 -0.810370 -0.029190
-1.34574497 -2.91574693 -0.35394201 0.996132 -0.087863 0.001059
-1.34812295 -2.92016792 -0.35151100 0.991228 -0.130454 0.021185
-1.43330204 -3.04287791 -0.42435601 0.534701 -0.844909 -0.014966
-1.35417795 -2.95683599 -0.34826201 0.915665 -0.400356 0.035675
-1.39311504 -3.00068808 -0.33058801 0.719414 -0.694172 0.023840
-1.37592602 -2.99398398 -0.40052700 0.769006 -0.639228 0.004142
-1.38706005 -2.99621201 -0.35928300 0.743722 -0.667225 0.041082
-1.35682702 -2.95938301 -0.38613701 0.913986 -0.405492 0.014342
-1.36682606 -2.97413707 -0.50204998 0.865026 -0.468741 -0.178920
-1.36370003 -2.97151589 -0.48611599 0.896649 -0.429440 -0.107710
-1.37347102 -2.99463892 -0.47127399 0.806851 -0.586930 -0.067119
-1.37410700 -2.98849010 -0.46588999 0.818162 -0.571437 -0.063808
-1.36482406 -2.90199804 -0.58768803 0.978598 -0.129902 -0.159594
-1.36831903 -2.96135306 -0.52847201 0.889504 -0.416270 -0.188417
-1.36865199 -2.96485496 -0.51673597 0.876686 -0.434634 -0.206192
-1.36498594 -2.91716290 -0.57200903 0.958610 -0.221422 -0.178994
-1.38954198 -3.00556207 -0.47743699 0.719656 -0.690696 -0.070952
-1.40369201 -3.01188207 -0.50718701 0.687287 -0.711455 -0.146520
-1.39828205 -3.00758410 -0.50218099 0.712082 -0.687995 -0.140008
-1.42825997 -3.01612496 -0.61861098 0.738314 -0.668138 -0.092107
-1.40671098 -2.97368312 -0.66822201 0.808017 -0.582524 -0.088174
-1.39476502 -2.95364594 -0.77439803 0.919824 -0.388901 -0.051765
-1.39906597 -2.96003509 -0.77768600 0.904698 -0.423447 -0.047050
-1.38410795 -2.96389008 -0.60354698 0.834400 -0.536296 -0.127133
-1.38252199 -2.96019197 -0.59915400 0.848683 -0.515013 -0.120411
-1.39179802 -2.95356488 -0.65518099 0.848047 -0.505878 -0.157810
-1.40903401 -2.97319794 -0.69697899 0.829245 -0.558750 -0.012295
-1.38489199 -2.92826104 -0.71324700 0.935453 -0.336115 -0.109339
-1.36258996 -2.88556290 -0.64548498 0.990185 -0.139227 -0.012252
-1.36178195 -2.89572692 -0.66165400 0.979733 -0.195947 -0.041564
-1.37341499 -2.89734793 -0.69341701 0.938157 -0.319055 -0.134410
-1.38786101 -2.83251905 -0.80923599 0.961647 -0.028393 -0.272816
-1.37132895 -2.91685200 -0.62868297 0.971728 -0.222713 -0.078385
-1.39046502 -2.97012305 -0.62998098 0.809633 -0.568972 -0.144100
-1.38868904 -2.94478989 -0.71644598 0.916234 -0.397611 -0.049203
-1.38441205 -2.94618106 -0.65941399 0.874811 -0.459892 -0.152330
-1.39845502 -2.96566796 -0.71453798 0.872391 -0.488268 -0.022993
-1.39240301 -2.93988395 -0.79137701 0.944690 -0.316649 -0.085403
-1.40029800 -2.96567512 -0.76648498 0.894990 -0.444120 -0.041847
-1.40105605 -2.96537304 -0.77327502 0.894990 -0.444120 -0.041847
-1.39737904 -2.93917489 -0.85107899 0.941130 -0.284400 -0.182730
-1.40352702 -2.96199894 -0.84859902 0.893785 -0.420351 -0.156376
-1.37818396 -2.91318989 -0.69827700 0.931815 -0.331710 -0.147274
-1.37989104 -2.91914892 -0.70215899 0.935850 -0.325572 -0.134860
-1.39158297 -2.94344497 -0.75190800 0.934441 -0.353185 -0.045614
-1.40057504 -2.86438990 -0.88036001 0.969750 0.073447 -0.232790
-1.38727796 -2.92133594 -0.78478497 0.974977 -0.195493 -0.105840
-1.38809395 -2.92825198 -0.77911198 0.964591 -0.249704 -0.084925
-1.39734995 -2.95651197 -0.76900601 0.906797 -0.419243 -0.044201
-1.38522506 -2.94732499 -0.68180400 0.884242 -0.454147 -0.108939
-1.38909197 -2.88623405 -0.80124301 0.977058 -0.039465 -0.209284
-1.38852894 -2.90885592 -0.77705503 0.977922 -0.167325 -0.125184
-1.38578105 -2.91050410 -0.78873098 0.981136 -0.152730 -0.118518
-1.38544798 -2.93135810 -0.76273298 0.959975 -0.273738 -0.059289
-1.38510001 -2.92032409 -0.75085199 0.963581 -0.255177 -0.079981
-1.40540099 -2.96919489 -0.80596799 0.884690 -0.458367 -0.084986
-1.43907201 -2.99287295 -0.89456701 0.757706 -0.610852 -0.229655
-1.39822900 -2.94890094 -0.78370899 0.925806 -0.373244 -0.059772
-1.39891398 -2.96309090 -0.74066401 0.884756 -0.465731 -0.017348
-1.40891504 -2.96486902 -0.79539102 0.892310 -0.445466 -0.073095
-1.39576304 -2.95118809 -0.81007397 0.924559 -0.367923 -0.099108
-1.43276095 -3.01095200 -0.76302201 0.734321 -0.677726 -0.038202
-1.44452703 -3.02167702 -0.76316899 0.665216 -0.744985 -0.049856
-1.50754094 -3.05527902 -0.71568698 0.473692 -0.875270 -0.097566
-1.50010002 -3.05454397 -0.71359903 0.469290 -0.877981 -0.094422
-1.44333506 -3.02083707 -0.68188000 0.733081 -0.679817 -0.021025
-1.42258501 -2.98580289 -0.69577998 0.807966 -0.589227 0.001367
-1.41935694 -2.98437500 -0.70050299 0.807328 -0.590024 0.009627
-1.42969096 -2.99395800 -0.84919101 0.760970 -0.627307 -0.165560
-1.47092104 -3.03013897 -0.81373501 0.506176 -0.856054 -0.104677
-1.46885705 -3.03040695 -0.80780399 0.511672 -0.852787 -0.104628
-1.45757699 -3.02869797 -0.73823398 0.591296 -0.806312 0.015161
-1.43220103 -3.01426911 -0.74699402 0.727510 -0.686096 -0.001380
-1.46225297 -3.03211093 -0.75693101 0.551089 -0.834192 -0.020614
-1.70576000 -3.04705095 -0.61153698 -0.281216 -0.956649 0.075761
-1.67596495 -3.06055903 -0.82160699 -0.210541 -0.977426 0.017643
-1.68987501 -3.05875707 -0.80997998 -0.237630 -0.971025 0.025331
-1.77925706 -3.02966094 -0.75686300 -0.575616 -0.813900 0.078950
-1.80811203 -3.00693798 -0.84360403 -0.685335 -0.715327 0.136467
-1.50704598 -3.05642295 -0.68886501 0.466810 -0.884130 -0.020063
-1.53858304 -3.06604505 -0.62520802 0.215046 -0.976518 -0.012926
-1.61199701 -3.07325196 -0.73503798 -0.266525 -0.959234 0.093992
-1.60458899 -3.07649899 -0.74199998 -0.226578 -0.970155 0.086375
-1.59879506 -3.07531190 -0.73344600 -0.208768 -0.974663 0.080295
-1.53350306 -3.07768893 -0.70363301 0.357982 -0.932327 -0.051140
-1.44151700 -3.02991009 -0.59929502 0.634636 -0.766547 -0.098200
-1.60209596 -3.07307506 -0.43015999 -0.190078 -0.981087 0.036599
-1.56754994 -3.07412791 -0.53443402 0.076979 -0.996391 -0.035779
-1.50260901 -3.05046892 -0.73645699 0.448149 -0.892212 -0.055848
-1.54057300 -3.07263803 -0.68700802 0.299998 -0.951496 0.068240
-1.53689504 -3.07058096 -0.68912202 0.325898 -0.944203 0.047661
-1.41391003 -2.98624396 -0.71706599 0.820647 -0.571302 0.012330
-1.57625496 -3.09558296 -0.71669298 -0.067343 -0.997312 0.028861
-1.43775296 -3.02335906 -0.62702000 0.687196 -0.722064 -0.079907
-1.44534695 -3.02939606 -0.62634099 0.642689 -0.761651 -0.082694
-1.48502302 -3.05649805 -0.58600098 0.388431 -0.919688 -0.057397
-1.41736400 -3.02370310 -0.53058797 0.660699 -0.728148 -0.182420
-1.41676295 -3.02497911 -0.53762603 0.669740 -0.716143 -0.196437
-1.42664599 -3.02954793 -0.54741699 0.663737 -0.727822 -0.172419
-1.51918197 -3.06373000 -0.70159602 0.446332 -0.894013 -0.039105
-1.52242398 -3.06421494 -0.71169400 0.415770 -0.904749 -0.092547
-1.74179900 -2.97865200 -0.24753700 -0.802739 -0.596202 0.012392
-1.60408199 -3.06076908 -0.23860399 -0.316745 -0.947691 0.039434
-1.69061899 -3.02516794 -0.21468100 -0.513295 -0.858186 0.006736
-1.54220498 -3.07432508 -0.36973700 0.060691 -0.997679 0.030878
-1.55292594 -3.07341790 -0.32281899 -0.008884 -0.999956 0.002961
-1.44352400 -3.04451704 -0.27992800 0.535135 -0.844446 -0.023267
-1.63890004 -3.04978704 -0.34372899 -0.329546 -0.941374 0.072211
-1.63997304 -3.05291200 -0.33170101 -0.335126 -0.940178 0.061288
-1.64685595 -3.04763699 -0.34384501 -0.339815 -0.937467 0.075368
-1.45179605 -3.04930711 -0.30224800 0.489390 -0.871684 -0.025757
-1.45750201 -3.05315590 -0.47632799 0.404965 -0.911510 -0.071783
-1.64833701 -3.05536008 -0.38705701 -0.354120 -0.931403 0.084187
-1.76699102 -2.98225808 -0.49261901 -0.833195 -0.537403 0.130324
-1.77196002 -2.82076812 -0.37904400 -0.892388 0.434173 0.123039
-1.63878703 -3.06989002 -0.58334100 -0.254609 -0.967037 0.003586
-1.49149501 -3.05745101 -0.61441898 0.374688 -0.927129 -0.006394
-1.47507906 -3.04845691 -0.62992299 0.449766 -0.892858 -0.022688
-1.47437894 -3.05524302 -0.50158203 0.331052 -0.940398 -0.077817
-1.40614998 -3.01867390 -0.47523099 0.632243 -0.773684 -0.041018
-1.43951797 -3.03315210 -0.57626802 0.634035 -0.762334 -0.129791
-1.82104099 -2.98039889 -0.76823097 -0.813380 -0.563567 0.144237
-1.78710198 -2.79480505 -0.56258798 -0.802379 0.579083 0.144398
-1.75775898 -2.80995798 -0.34964001 -0.849784 0.513924 0.117261
-1.57281101 -3.07201409 -0.36410701 -0.068184 -0.996780 0.042209
-1.55961597 -2.71128893 -0.35648701 -0.007385 0.997002 -0.077017
-1.65070295 -2.69351912 -0.50192499 -0.474624 0.869903 0.134164
-1.66927004 -2.71279502 -0.51619101 -0.472522 0.875929 0.097325
-1.64955401 -2.71336699 -0.47313300 -0.517797 0.826338 0.221477
-1.41380596 -2.97771692 -0.68842000 0.815605 -0.578238 -0.020701
-1.41580403 -2.98528290 -0.70423502 0.810840 -0.585072 0.015143
-1.82591903 -2.85540009 -0.62544203 -0.989831 0.077566 0.119243
-1.80364203 -2.91731405 -0.54844499 -0.957840 -0.247057 0.146649
-1.79806304 -2.81710005 -0.56222099 -0.918844 0.357093 0.167961
-1.82986104 -2.82595301 -0.69468200 -0.957934 0.221879 0.182021
-1.83133900 -2.94794798 -0.73642999 -0.928812 -0.332813 0.162925
-1.77298403 -3.03018498 -0.81124002 -0.489635 -0.869691 0.062418
-1.74076903 -3.04658508 -0.99733901 -0.250148 -0.967647 0.032946
-1.71969903 -3.04968190 -0.72754502 -0.305492 -0.951676 0.031429
-1.81766295 -2.88422203 -0.58448601 -0.975995 -0.134058 0.171645
-1.76038098 -2.99531794 -0.46651399 -0.792638 -0.598522 0.116175
-1.76042998 -2.98805189 -0.45012000 -0.798915 -0.590757 0.112874
-1.79306495 -2.95004010 -0.52993202 -0.904113 -0.395639 0.161398
-1.83176601 -2.88088608 -0.67326999 -0.987562 -0.042737 0.151311
-1.84772599 -2.92061090 -0.78843898 -0.947370 -0.206425 0.244703
-1.81945097 -2.95472002 -0.69492501 -0.922326 -0.351296 0.160952
-1.82246006 -2.80577588 -0.69504100 -0.939273 0.288264 0.186199
-1.84257901 -2.90099096 -0.77001202 -0.974046 -0.119399 0.192296
-1.84260094 -2.90743399 -0.77690202 -0.971862 -0.143556 0.186750
-1.82981503 -2.80876708 -0.73329097 -0.927728 0.319567 0.192866
-1.84976804 -2.89788699 -0.78777701 -0.971192 -0.133650 0.197293
-1.84153104 -2.85508394 -0.72720498 -0.979626 0.071444 0.187691
-1.82780004 -2.85559607 -0.67104101 -0.981985 0.058324 0.179733
-1.79811394 -2.85782099 -0.46345401 -0.975329 0.152277 0.159828
-1.78724504 -2.79215598 -0.54686701 -0.813207 0.558612 0.163240
-1.77692294 -2.96414709 -0.45803201 -0.881599 -0.461252 0.100150
-1.74777305 -2.77850008 -0.41254699 -0.723807 0.668950 0.169142
-1.76433396 -2.78787589 -0.45849100 -0.777516 0.613357 0.138789
-1.65731502 -2.70032406 -0.53099799 -0.446678 0.889154 0.099417
-1.64471400 -2.69801807 -0.54833698 -0.427542 0.896004 0.119938
-1.77634799 -2.81469202 -0.43708500 -0.874898 0.454246 0.167969
-1.64153099 -2.72738600 -0.35561800 -0.361334 0.929334 0.076000
-1.74615502 -2.79823399 -0.32825699 -0.836224 0.542762 0.078351
-1.70670998 -3.02836108 -0.39342701 -0.496178 -0.862980 0.095255
-1.75724804 -2.96914291 -0.31611601 -0.829281 -0.547529 0.111829
-1.78621805 -2.87190390 -0.36277300 -0.984321 0.166614 0.057901
-1.78328395 -2.93488312 -0.39619100 -0.946254 -0.317144 0.063429
-1.78141499 -2.86834502 -0.34011000 -0.984089 0.150197 0.094924
-1.78112900 -2.85625100 -0.34724501 -0.959450 0.276110 0.056735
-1.80090594 -2.85351610 -0.47426799 -0.968373 0.194706 0.156023
-1.78684902 -2.89356804 -0.36927801 -0.992187 -0.062509 0.107970
-1.78379798 -2.89563799 -0.35902500 -0.993796 -0.064007 0.090958
-1.78623903 -2.88575196 -0.35031199 -0.996897 0.013802 0.077501
-1.73032105 -2.99444509 -0.29638499 -0.745544 -0.656612 0.114129
-1.73604000 -2.98577499 -0.29815301 -0.751144 -0.650794 0.110679
-1.77865601 -2.90153599 -0.28567699 -0.989831 -0.077566 0.119243
-1.77266502 -2.94032097 -0.34317401 -0.930950 -0.348259 0.109763
-1.77783799 -2.96728992 -0.50341702 -0.876422 -0.453523 0.161868
-1.76751399 -2.98533106 -0.50733203 -0.829746 -0.541905 0.133641
-1.78820896 -2.92562103 -0.42552200 -0.949561 -0.292682 0.112570
-1.80478501 -2.90895796 -0.52133000 -0.971565 -0.159587 0.174907
-1.75800598 -2.96587610 -0.34424001 -0.849884 -0.515125 0.111105
-1.79012406 -2.90537095 -0.42235899 -0.985468 -0.064911 0.156967
-1.76174200 -2.98721695 -0.43189400 -0.802517 -0.584586 0.119273
-1.72603297 -3.03290105 -0.53383201 -0.454580 -0.888559 0.061801
-1.73720801 -3.01802492 -0.43640301 -0.639269 -0.758480 0.126662
-1.69515896 -3.03722310 -0.36463600 -0.469904 -0.875923 0.109313
-1.73410904 -3.01424789 -0.40752399 -0.663255 -0.742318 0.095169
-1.66329503 -3.04871392 -0.43702701 -0.358646 -0.932481 0.043038
-1.75082898 -2.96621299 -0.29001200 -0.814759 -0.571634 0.096961
-1.70506501 -3.01320696 -0.25055301 -0.643994 -0.763410 0.049757
-1.73210895 -3.01978207 -0.46625400 -0.614215 -0.779979 0.119883
-1.73270202 -3.00129104 -0.33637500 -0.691713 -0.709718 0.133541
-1.74151194 -2.99997902 -0.37453401 -0.734474 -0.673146 0.086151
-1.70096099 -3.02455306 -0.28228101 -0.561711 -0.824880 0.063670
-1.74457395 -2.98507309 -0.34437999 -0.783778 -0.604629 0.141827
-1.78059006 -3.01157689 -0.68988299 -0.698626 -0.710294 0.086052
-1.77559304 -3.01539898 -0.66496700 -0.702968 -0.702968 0.108035
-1.71370602 -3.02968597 -0.40202799 -0.555025 -0.827519 0.084616
-1.71809494 -3.00460792 -0.29938000 -0.713023 -0.692270 0.111178
-1.58575296 -3.07265711 -0.61941701 0.035582 -0.999354 -0.005083
-1.75358105 -2.98604798 -0.40473199 -0.795970 -0.592178 0.125524
-1.77956700 -3.01766205 -0.74268699 -0.618690 -0.780970 0.085487
-1.74450600 -3.00688291 -0.45398599 -0.687197 -0.714146 0.133247
-1.72298002 -3.03065300 -0.47275701 -0.544185 -0.828746 0.130546
-1.70921099 -3.03753400 -0.48200700 -0.452744 -0.884199 0.114960
-1.77376902 -2.99392295 -0.55634999 -0.800558 -0.579095 0.154126
-1.71650398 -3.04218102 -0.55805701 -0.393988 -0.918427 0.035578
-1.68486702 -3.05032611 -0.48263699 -0.337092 -0.936068 0.100725
-1.65949202 -3.05150604 -0.48631501 -0.297938 -0.951060 0.081965
-1.70096004 -3.05291009 -0.80186200 -0.249578 -0.967876 0.030436
-1.72473300 -3.02339506 -0.43120900 -0.594936 -0.796659 0.106708
-1.77172005 -3.00508189 -0.58164501 -0.774904 -0.616638 0.138856
-1.72913504 -3.03573108 -0.55173302 -0.461080 -0.884998 0.064689
-1.76065004 -3.01351404 -0.56029600 -0.718379 -0.685658 0.117499
-1.68575597 -3.04991007 -0.57534802 -0.299000 -0.954072 0.018610
-1.76045895 -3.03368902 -0.72782397 -0.479691 -0.874567 0.070911
-1.79471397 -2.95725799 -0.56731898 -0.906497 -0.400545 0.133515
-1.80582094 -2.93152094 -0.58705199 -0.937873 -0.308962 0.157914
-1.77354205 -3.00953197 -0.62863201 -0.729890 -0.673401 0.117436
-1.75218403 -3.03208995 -0.62166500 -0.554075 -0.827515 0.090667
-1.79268098 -2.99604797 -0.66879201 -0.800268 -0.582690 0.141574
-1.73730099 -3.03336191 -0.56957799 -0.505178 -0.859787 0.074581
-1.72890699 -3.04584193 -0.79848999 -0.275099 -0.960997 0.028373
-1.63848400 -3.06757689 -0.82901597 -0.300050 -0.951660 -0.065676
-1.83389699 -2.97486997 -0.83889902 -0.848939 -0.502252 0.164454
-1.73441505 -3.04843092 -0.74951398 -0.339816 -0.939945 0.032058
-1.80527306 -2.99150801 -0.72775298 -0.803041 -0.581206 0.131622
-1.82386994 -2.95720911 -0.72675401 -0.898400 -0.412778 0.149971
-1.79126501 -3.01228499 -0.75034797 -0.686027 -0.721283 0.095486
-1.82087600 -2.97015405 -0.74701703 -0.848522 -0.502005 0.167335
-1.80856597 -2.98097992 -0.69844902 -0.845076 -0.517005 0.136208
-1.82130694 -2.98802209 -0.80984902 -0.795663 -0.590427 0.135337
-1.61330295 -3.07162905 -0.64727098 -0.155847 -0.987776 -0.003364
-1.78274798 -3.01314712 -0.73422498 -0.666873 -0.739835 0.089014
-1.75452602 -3.04532099 -0.83863300 -0.305092 -0.951020 0.049785
-1.72588003 -3.04595995 -0.68396503 -0.339026 -0.940317 0.029425
-1.71238303 -3.05175090 -0.69571799 -0.267190 -0.962133 0.053940
-1.65120697 -3.06702590 -0.65317202 -0.249549 -0.968344 0.005970
-1.67139602 -3.05880094 -0.63798898 -0.261725 -0.964572 0.033176
-1.73766804 -3.04246306 -0.71495599 -0.410474 -0.910529 0.049471
-1.72096002 -3.04647493 -0.63538498 -0.324298 -0.944470 0.052973
-1.63865197 -3.06397891 -0.52599901 -0.279788 -0.958370 0.056970
-1.69404805 -3.04637194 -0.55531198 -0.319954 -0.947413 0.006225
-1.74270701 -3.04472899 -0.76652801 -0.358646 -0.932481 0.043038
-1.61463904 -3.07740092 -0.55887502 -0.168617 -0.985676 0.003395
-1.67683399 -3.05535698 -0.60944802 -0.274228 -0.960424 0.048835
-1.72512102 -3.04813910 -0.75801402 -0.301984 -0.953176 0.016156
-1.61328804 -3.07353091 -0.66539103 -0.195181 -0.978330 0.069101
-1.48113096 -3.04137301 -0.80479997 0.456422 -0.886486 -0.076302
-1.59946799 -3.07791591 -0.47233501 -0.170134 -0.984925 0.031249
-1.58932304 -3.07608700 -0.48007599 -0.113305 -0.993340 0.020901
-1.61869299 -3.07578802 -0.56857997 -0.200570 -0.979662 -0.005797
-1.58445895 -3.09279394 -0.70503199 -0.137685 -0.987333 0.078845
-1.58342302 -3.09787798 -0.71047503 -0.139419 -0.987651 0.071467
-1.69974697 -3.04649401 -0.48800099 -0.367923 -0.924559 0.099108
-1.64623702 -3.06440997 -0.69894803 -0.211839 -0.977270 0.008193
-1.65959895 -3.06406808 -0.70391399 -0.227090 -0.973751 0.015456
-1.66463697 -3.06154299 -0.65716100 -0.241647 -0.970197 0.018033
-1.66467404 -3.05898905 -0.66437602 -0.234786 -0.971653 0.027693
-1.68237698 -3.05489898 -0.59652400 -0.287137 -0.955846 0.062532
-1.67498505 -3.05624104 -0.58825302 -0.303913 -0.952091 0.034048
-1.69297099 -3.04920292 -0.58882898 -0.276779 -0.959249 0.056872
-1.72352600 -3.04501200 -0.62007999 -0.339818 -0.938108 0.066914
-1.66013801 -3.06256509 -0.74944103 -0.256506 -0.965887 0.035592
-1.49451995 -3.04985309 -0.72001499 0.453725 -0.886509 -0.090745
-1.61949205 -3.07538795 -0.72786403 -0.290736 -0.951142 0.103928
-1.54222906 -3.07050610 -0.79290098 0.402617 -0.912327 -0.074559
-1.57374406 -3.09354591 -0.69525099 -0.057474 -0.992831 0.104805
-1.56016600 -3.09512591 -0.68782902 0.133146 -0.984798 0.111555
-1.51211298 -3.05078506 -0.81806999 0.375419 -0.921482 -0.099657
-1.46359801 -3.02524805 -0.84588099 0.585930 -0.799535 -0.132020
-1.57416105 -3.09948707 -0.70793003 -0.033071 -0.997469 0.062942
-1.56600595 -3.09647989 -0.69890600 0.091338 -0.993441 0.068785
-1.57963800 -3.10022902 -0.70284498 -0.127246 -0.988783 0.078215
-1.44945598 -3.02604389 -0.69801998 0.666766 -0.745045 -0.018172
-1.46397901 -3.03238201 -0.73742300 0.521602 -0.853162 0.006739
-1.44866502 -3.01394796 -0.86355299 0.667469 -0.730751 -0.143137
-1.44574594 -3.02438593 -0.71737599 0.677265 -0.735674 -0.009735
