-15.31437778 -0.34250501 -1.40193605 -0.933568 -0.312114 -0.176171
-15.31555176 -0.35048100 -1.39503598 -0.953091 -0.267184 -0.142233
-15.31808567 -0.33485001 -1.39749897 -0.935510 -0.326404 -0.135205
-15.31297493 -0.34989899 -1.40348005 -0.941130 -0.284400 -0.182730
-15.32788944 -0.35957700 -1.23548603 -0.999984 -0.002950 -0.004916
-15.32874680 -0.33485699 -1.22185302 -0.999020 -0.005113 0.043969
-15.32444763 -0.33706200 -1.22833705 -0.999494 -0.005063 0.031392
-15.32312965 -0.33042800 -1.22629595 -0.999575 0.001005 0.029133
-15.36337280 -0.27927700 -1.21333802 -0.573832 -0.818777 0.017889
-15.32200527 -0.32615799 -1.24614596 -0.994344 -0.092419 0.052334
-15.32319832 -0.33449399 -1.25069296 -0.998502 -0.049141 0.024048
-15.32850456 -0.32078201 -1.27609503 -0.986388 -0.161910 0.028707
-15.32644844 -0.32841799 -1.26546097 -0.992555 -0.120343 0.018769
-15.32033253 -0.34091899 -1.23881996 -0.999754 -0.021058 0.007019
-15.31854820 -0.33207300 -1.24220097 -0.999034 -0.032093 0.030023
-15.32709980 -0.33944800 -1.25114799 -0.998705 -0.046863 0.019787
-15.33208466 -0.36095399 -1.24216199 -0.999094 -0.027954 -0.032095
-15.34542274 -0.29846099 -1.23655999 -0.859031 -0.511619 -0.017642
-15.32687378 -0.34905100 -1.23908496 -0.999928 -0.010901 0.004955
-15.32676029 -0.35267401 -1.23653197 -0.999936 -0.010880 0.002967
-15.32395554 -0.32392401 -1.22917104 -0.994694 -0.102601 0.007560
-15.30868530 -0.34769300 -1.13036001 -0.951717 0.301014 -0.060203
-15.30874443 -0.35452601 -1.15072000 -0.969224 0.201015 0.142119
-15.31654739 -0.33664700 -1.18959498 -0.963405 0.141715 0.227525
-15.31006145 -0.34048900 -1.17417002 -0.938545 0.169021 0.300939
-15.33114719 -0.33451000 -1.27579498 -0.992776 -0.119572 0.009873
-15.33268547 -0.34250399 -1.19502497 -0.980259 0.071138 0.184477
-15.33917332 -0.34511700 -1.21751797 -0.999179 0.007159 0.039885
-15.32867432 -0.31542900 -1.23454595 -0.973795 -0.225092 0.032500
-15.35611725 -0.28125000 -1.22887695 -0.641376 -0.765970 -0.043891
-15.34638882 -0.29889399 -1.25096595 -0.862278 -0.502880 0.059900
-15.36402035 -0.27858201 -1.27669704 -0.594653 -0.803547 0.026460
-15.33850193 -0.29141900 -1.39806497 -0.846372 -0.528103 -0.069005
-15.34084129 -0.28798801 -1.39131105 -0.873934 -0.483072 -0.053675
-15.35268497 -0.28876501 -1.26048100 -0.803435 -0.595391 0.001369
-15.33033752 -0.31504801 -1.26392400 -0.961580 -0.259921 0.088348
-15.33217621 -0.30441600 -1.37975597 -0.873302 -0.486956 0.014756
-15.32721901 -0.30830401 -1.35741401 -0.933844 -0.347694 0.083926
-15.34270477 -0.28690201 -1.53858697 -0.812307 -0.580623 -0.055096
-15.33958912 -0.29490501 -1.55487597 -0.844691 -0.529529 -0.078081
-15.33195305 -0.29756501 -1.37524199 -0.872113 -0.486344 0.053732
-15.36773777 -0.27113900 -1.43729198 -0.696261 -0.710981 -0.098625
-15.33170414 -0.30378199 -1.41294599 -0.869185 -0.470263 -0.152872
-15.33686638 -0.29049599 -1.40798795 -0.814983 -0.564446 -0.131164
-15.33712959 -0.29534701 -1.36414897 -0.867535 -0.488254 0.094820
-15.33088112 -0.30328801 -1.36624599 -0.904514 -0.415662 0.095285
-15.34314156 -0.28426600 -1.44419098 -0.759515 -0.649195 -0.041017
-15.35883045 -0.27136001 -1.45723605 -0.675362 -0.733458 0.076977
-15.34329987 -0.28472799 -1.47031903 -0.740789 -0.664509 0.098283
-15.34815788 -0.27815899 -1.48306799 -0.735007 -0.674358 0.070757
-15.41841412 -0.26575300 -1.24766099 -0.009331 -0.998446 -0.054951
-15.41049480 -0.26631701 -1.28744996 -0.101969 -0.994468 0.025218
-15.42287064 -0.26898500 -1.26348495 0.072516 -0.997353 0.005255
-15.38952637 -0.26845300 -1.29476500 -0.239241 -0.970321 -0.035218
-15.40317440 -0.26735500 -1.25421095 -0.222038 -0.974829 -0.020185
-15.36156082 -0.27844200 -1.23192501 -0.578659 -0.815569 -0.001362
-15.36263943 -0.27961200 -1.25760996 -0.636169 -0.770986 0.029491
-15.43045998 -0.27160400 -1.19334197 0.101947 -0.994785 -0.003219
-15.43553352 -0.25959900 -1.45821095 -0.081212 -0.996696 0.001055
-15.43592358 -0.26470000 -1.37428606 -0.060314 -0.997829 -0.026454
-15.34886265 -0.28111300 -1.42115200 -0.759816 -0.642696 -0.098088
-15.34542847 -0.28236100 -1.40806603 -0.814716 -0.577502 -0.052243
-15.36296558 -0.27136499 -1.50172901 -0.625989 -0.778601 0.043805
-15.36281586 -0.26895699 -1.47038996 -0.704562 -0.707432 0.055963
-15.38783169 -0.26902199 -1.49110901 -0.279985 -0.959416 0.033598
-15.35264397 -0.27612001 -1.55474997 -0.827011 -0.548901 -0.121490
-15.42455482 -0.26217601 -1.49088097 -0.090726 -0.995848 0.007472
-15.42278385 -0.25531900 -1.63785803 -0.103644 -0.992023 -0.071754
-15.32249832 -0.28693601 -1.65237105 -0.849983 -0.517443 -0.098902
-15.32208157 -0.30018699 -1.64179206 -0.871081 -0.475005 -0.124850
-15.37963963 -0.25580999 -1.63891995 -0.280113 -0.953437 -0.111782
-15.40641403 -0.25773200 -1.60789001 -0.139162 -0.986025 -0.091585
-15.41805553 -0.25253499 -1.62132704 -0.120164 -0.986299 -0.113026
-15.41135788 -0.24856600 -1.67974496 -0.098482 -0.992740 -0.069050
-15.35621166 -0.25435200 -1.80828595 -0.381260 -0.918051 -0.108735
-15.35193920 -0.25999600 -1.77337205 -0.431354 -0.897384 -0.092928
-15.34057903 -0.27794299 -1.61003196 -0.683195 -0.721727 -0.111149
-15.34687233 -0.27227300 -1.59778094 -0.676100 -0.724071 -0.136419
-15.39334297 -0.25325599 -1.63940406 -0.148759 -0.983260 -0.105220
-15.40136623 -0.24903500 -1.66296101 -0.089379 -0.990130 -0.107951
-15.34716892 -0.26818201 -1.69059205 -0.674516 -0.738228 -0.006925
-15.33230782 -0.27850601 -1.64415801 -0.774168 -0.624329 -0.104300
-15.33203316 -0.30051300 -1.62542498 -0.847184 -0.513578 -0.136076
-15.35157585 -0.27991900 -1.52044106 -0.773167 -0.633858 -0.020896
-15.34029675 -0.29075500 -1.58703101 -0.843207 -0.523920 -0.120458
-15.34997845 -0.28238499 -1.51140797 -0.756412 -0.654082 0.004149
-15.34374714 -0.27814600 -1.59119797 -0.724283 -0.683313 -0.092181
-15.34564209 -0.28317899 -1.57239103 -0.876850 -0.470195 -0.100252
-15.33978939 -0.30588701 -1.53067803 -0.813727 -0.581233 0.004103
-15.33795261 -0.30428201 -1.47096896 -0.799524 -0.586712 0.128574
-15.32759762 -0.31473601 -1.55870497 -0.832807 -0.547110 -0.084281
-15.32855988 -0.31135300 -1.56637299 -0.833023 -0.545277 -0.093517
-15.34112453 -0.29485399 -1.59472799 -0.821377 -0.552025 -0.143556
-15.34185600 -0.28435099 -1.59504497 -0.739828 -0.658792 -0.136560
-15.36074543 -0.26097301 -1.75647795 -0.435095 -0.896434 -0.084256
-15.34397125 -0.26789799 -1.66561198 -0.668633 -0.742452 -0.041168
-15.33193207 -0.30147201 -1.61424696 -0.835548 -0.526855 -0.155830
-15.31633091 -0.30907100 -1.69467700 -0.873436 -0.475774 -0.103676
-15.31470680 -0.29382801 -1.80133605 -0.808056 -0.583356 -0.082102
-15.33518505 -0.28826299 -1.61098802 -0.823939 -0.538787 -0.175594
-15.32266903 -0.29113799 -1.73457694 -0.777485 -0.624584 -0.073565
-15.32474995 -0.29063800 -1.70822799 -0.814759 -0.571634 -0.096961
-15.32153130 -0.30270499 -1.66284502 -0.873009 -0.480645 -0.082677
-15.33306789 -0.26805300 -2.00317407 -0.539569 -0.841618 0.023340
-15.28726578 -0.30707100 -2.09064102 -0.658132 -0.752747 -0.015305
-15.31573582 -0.27551901 -2.06739497 -0.604149 -0.795674 0.043656
-15.30469513 -0.28584099 -2.02865791 -0.676907 -0.735768 -0.021022
-15.28610992 -0.30638599 -2.02364802 -0.726204 -0.686567 -0.035390
-15.30098248 -0.31297600 -1.76542401 -0.880714 -0.462269 -0.103198
-15.28601170 -0.31135300 -1.94832397 -0.776068 -0.625206 -0.082684
-15.31628799 -0.27878100 -1.82755697 -0.722189 -0.691458 -0.018159
-15.31408596 -0.29170501 -1.78609002 -0.779836 -0.620093 -0.085680
-15.38712406 -0.25887901 -1.77601802 -0.188532 -0.981985 0.012723
-15.31578255 -0.28121400 -1.87815404 -0.705591 -0.708386 -0.018164
-15.31834698 -0.27835101 -1.83834505 -0.728997 -0.683876 -0.029611
-15.33165646 -0.28176001 -1.73320198 -0.711604 -0.700104 -0.058941
-15.31885147 -0.28311300 -1.79223704 -0.743832 -0.661996 -0.092066
-15.33021832 -0.27233800 -1.77738202 -0.647085 -0.755666 -0.101245
-15.38774204 -0.24063100 -1.84545398 -0.265940 -0.962629 -0.051190
-15.39432240 -0.24774399 -1.73758399 -0.250444 -0.965279 0.074252
-15.30297661 -0.29804099 -1.87987494 -0.787461 -0.614361 -0.049660
-15.37281132 -0.25835201 -1.77051198 -0.307646 -0.950792 -0.036715
-15.42051411 -0.24818800 -1.77088499 -0.177697 -0.983723 0.026713
-15.34008121 -0.25856900 -1.92489004 -0.484202 -0.866391 -0.122128
-15.39711666 -0.25106901 -1.92106903 -0.232497 -0.968946 -0.084201
-15.36379814 -0.25106800 -2.04061103 -0.423997 -0.905147 0.030570
-15.32861805 -0.26546499 -1.98878503 -0.536176 -0.844105 0.001351
-15.30048847 -0.29963300 -1.91354406 -0.766755 -0.635311 -0.092011
-15.35100746 -0.25453401 -1.98449099 -0.437266 -0.899331 0.001305
-15.35839653 -0.24860300 -1.96815801 -0.350548 -0.936079 -0.029533
-15.31559658 -0.27380699 -2.03372097 -0.629885 -0.776628 0.009691
-15.34814835 -0.25536400 -1.96063805 -0.407397 -0.913040 -0.019649
-15.35358047 -0.25090599 -1.96966302 -0.386672 -0.922064 -0.016812
-15.34298420 -0.25929999 -1.97231197 -0.486001 -0.873725 0.020194
-15.32514191 -0.26961300 -2.02065301 -0.578238 -0.815605 0.020701
-15.30095768 -0.29212600 -2.04731202 -0.657901 -0.752885 0.018159
-15.32837963 -0.26661599 -1.97221696 -0.586134 -0.810204 0.004099
-15.31164742 -0.28131101 -2.04874301 -0.628244 -0.777223 0.035137
-15.32647133 -0.27345201 -2.09674311 -0.599854 -0.798387 -0.052469
-15.33917141 -0.26371601 -2.06461000 -0.522985 -0.851402 0.040017
-15.37985611 -0.24135201 -2.03285503 -0.357931 -0.933678 0.011464
-15.34166336 -0.25876001 -2.01011610 -0.495626 -0.868359 0.017556
-15.33738995 -0.26078099 -2.03188705 -0.503410 -0.863573 0.028649
-15.35330009 -0.25364500 -2.05461001 -0.447929 -0.891748 0.064381
-15.31788731 -0.27682799 -2.05277205 -0.613622 -0.788539 0.040908
-15.42261982 -0.23584899 -1.91576600 -0.198891 -0.977374 -0.071991
-15.37107182 -0.24411300 -2.00218606 -0.356781 -0.934187 0.001261
-15.36763382 -0.25743401 -1.70676899 -0.412755 -0.910683 -0.017034
-15.41742420 -0.24030200 -1.90490699 -0.201028 -0.979274 -0.024688
-15.40780354 -0.24394301 -1.91308701 -0.207847 -0.975280 -0.075022
-15.40706921 -0.23850200 -1.83322704 -0.227876 -0.953302 -0.198211
-15.41556931 -0.23686300 -1.83536804 -0.099949 -0.991452 -0.083866
-15.43267345 -0.24063399 -1.81943202 -0.051602 -0.989614 -0.134166
-15.47560883 -0.25134200 -1.75926006 0.192055 -0.981229 -0.017460
-15.43991280 -0.23689599 -1.88203800 0.052451 -0.998619 0.003085
-15.47075939 -0.24784499 -1.78641796 0.113032 -0.989318 -0.092057
-15.44520378 -0.24415500 -1.77241004 0.000989 -0.999917 -0.012857
-15.43910408 -0.23668700 -1.90757096 -0.058965 -0.998260 -0.001034
-15.49876785 -0.25056899 -1.81106198 0.265267 -0.963599 -0.033313
-15.45691967 -0.24008900 -1.86768198 0.117004 -0.991695 -0.053390
-15.44818211 -0.22040001 -2.13271689 0.198248 -0.979369 -0.039175
-15.48084545 -0.23800500 -1.94965196 0.131299 -0.988806 -0.070878
-15.49489594 -0.23910099 -2.03365707 0.500633 -0.861652 -0.083204
-15.49495888 -0.23962200 -2.00342894 0.386216 -0.921382 -0.043499
-15.41763973 -0.23822001 -1.96670699 -0.171166 -0.982708 -0.070621
-15.39923573 -0.23902000 -1.94682395 -0.247073 -0.963970 -0.098573
-15.40686035 -0.24092799 -1.93699205 -0.206817 -0.974641 -0.085451
-15.43334866 -0.23816501 -1.93645501 -0.085746 -0.994433 -0.061247
-15.39750957 -0.23843201 -1.95416296 -0.250261 -0.964202 -0.087655
-15.39879322 -0.24041300 -1.96799600 -0.251201 -0.962294 -0.104345
-15.46023273 -0.22128500 -2.14074397 0.236282 -0.968881 -0.073760
-15.46602345 -0.22240400 -2.12515807 0.249535 -0.967410 -0.043023
-15.40629292 -0.23064101 -2.19489503 -0.286521 -0.957940 -0.015986
-15.40439987 -0.22847900 -2.21749091 -0.332733 -0.942953 -0.011300
-15.28906059 -0.29124099 -2.21945810 -0.622368 -0.781150 -0.049619
-15.39135647 -0.23439901 -2.19175291 -0.363475 -0.930338 0.048551
-15.39238739 -0.23389199 -2.21148300 -0.389796 -0.920747 0.016835
-15.47299671 -0.22254500 -2.18246198 0.201390 -0.978007 -0.054267
-15.37383842 -0.23939700 -2.17069507 -0.368470 -0.927161 0.067841
-15.35981846 -0.25452501 -2.07425690 -0.445503 -0.894995 0.022608
-15.33995056 -0.25905299 -2.13019800 -0.493103 -0.860399 -0.128698
-15.43700790 -0.22419500 -2.10923505 -0.009443 -0.997768 -0.066098
-15.44769669 -0.21987000 -2.19968104 -0.030267 -0.998796 -0.038616
-15.43744564 -0.22477700 -2.13907695 -0.005083 -0.999354 0.035582
-15.48306942 -0.22084101 -2.23950100 0.319933 -0.947253 -0.018820
-15.49373436 -0.23130400 -2.22083497 0.387480 -0.920098 -0.057256
-15.45062542 -0.22185899 -2.17588711 -0.045148 -0.998516 -0.030449
-15.45564842 -0.21932299 -2.21024489 0.003044 -0.999365 -0.035510
-15.42981339 -0.20902900 -2.33732796 -0.112808 -0.992933 -0.036858
-15.39877033 -0.21302401 -2.33606911 -0.277438 -0.960737 0.003635
-15.45552826 -0.18408699 -2.42912006 0.057011 -0.924105 -0.377862
-15.53379154 -0.26426199 -2.26326299 0.827495 -0.561270 -0.015095
-15.40187645 -0.22497900 -2.25493193 -0.372731 -0.915653 -0.150499
-15.32305717 -0.26421800 -2.26243210 -0.512118 -0.858906 0.004032
-15.39084721 -0.22168700 -2.32470894 -0.396499 -0.914265 -0.083115
-15.28122425 -0.27689099 -2.40949988 -0.683659 -0.683659 -0.255381
-15.37500858 -0.23601900 -2.28786397 -0.506949 -0.852662 -0.126374
-15.34454155 -0.20084000 -2.39423800 -0.133245 -0.747070 -0.651254
-15.35407066 -0.19492701 -2.40317798 0.061677 -0.750166 -0.658367
-15.42831135 -0.20837200 -2.38380599 -0.276736 -0.944718 -0.175857
-15.43083096 -0.19558001 -2.41687489 -0.141264 -0.894675 -0.423793
-15.39916515 -0.21516401 -2.30428004 -0.309937 -0.943228 -0.119413
-15.37290192 -0.22259700 -2.38649702 0.137300 -0.819370 -0.556581
-15.35929489 -0.18318100 -2.41129398 0.113954 -0.640805 -0.759199
-15.33724594 -0.25553301 -2.31016111 -0.546759 -0.817880 -0.179241
-15.32639313 -0.26763099 -2.31379199 -0.526114 -0.840909 -0.126792
-15.32659054 -0.26601800 -2.31852794 -0.525351 -0.809072 -0.263455
-15.33257103 -0.25788301 -2.32153201 -0.533648 -0.793346 -0.292952
-15.33734226 -0.19351900 -2.43041992 -0.727252 -0.673271 -0.133455
-15.34787941 -0.18311600 -2.41707397 0.140023 -0.694092 -0.706137
-15.36490345 -0.24226899 -2.25712991 -0.456048 -0.875670 -0.158815
-15.29583168 -0.29250899 -2.14316010 -0.655266 -0.751159 -0.079911
-15.34912777 -0.24876601 -2.16551495 -0.457249 -0.889170 0.017330
-15.32197475 -0.26823199 -2.13901997 -0.587273 -0.805527 -0.078973
-15.32047844 -0.27111199 -2.12052703 -0.615253 -0.781854 -0.100837
-15.30936146 -0.27770999 -2.14748311 -0.633321 -0.771186 -0.064625
-15.31786346 -0.27359599 -2.18692994 -0.611597 -0.791072 -0.012425
-15.32862854 -0.26272699 -2.24691105 -0.488802 -0.872386 -0.003996
-15.32334232 -0.26948500 -2.21486998 -0.516830 -0.855958 -0.014922
-15.30254936 -0.28475600 -2.15005803 -0.654854 -0.752722 -0.067644
-15.29931068 -0.28494799 -2.21055794 -0.622140 -0.782239 -0.032301
-15.28967667 -0.29299000 -2.19349599 -0.635691 -0.771005 -0.038057
-15.37318516 -0.22952799 -2.30694199 -0.504134 -0.851914 -0.141742
-15.35343266 -0.25936899 -2.10143495 -0.488538 -0.870511 -0.059510
-15.29116154 -0.29229501 -2.17847204 -0.668078 -0.743710 -0.023810
-15.33013821 -0.26398900 -2.11413097 -0.573889 -0.813853 -0.091071
-15.31558132 -0.27065799 -2.16754794 -0.604148 -0.796814 -0.009633
-15.29517078 -0.28658599 -2.27715111 -0.561162 -0.827194 -0.029097
-15.31598854 -0.25996101 -2.33022809 -0.542800 -0.794533 -0.272187
-15.31383419 -0.27667901 -2.29281402 -0.545703 -0.834855 -0.072288
-15.38521004 -0.22439300 -2.31748605 -0.428796 -0.893207 -0.135334
-15.26906013 -0.30677500 -2.29427409 -0.627715 -0.773357 -0.088841
-15.32016754 -0.24716599 -2.36349893 -0.614918 -0.730516 -0.297023
-15.31721878 -0.23932301 -2.38070202 -0.723907 -0.621180 -0.300157
-15.32245636 -0.22273099 -2.39062309 -0.654955 -0.635058 -0.409554
-15.29515839 -0.27749699 -2.32007194 -0.536294 -0.823324 -0.185814
-15.31287193 -0.26921400 -2.31785488 -0.529077 -0.815982 -0.232917
-15.32799625 -0.26295599 -2.27929997 -0.542761 -0.839562 -0.023359
-15.27993584 -0.30073199 -2.29178810 -0.589720 -0.803115 -0.085070
-15.25724506 -0.30952999 -2.30705094 -0.692039 -0.712785 -0.114105
-15.34546471 -0.25210300 -2.29868507 -0.566211 -0.818182 -0.099920
-15.25203800 -0.31112501 -2.31541705 -0.719041 -0.686559 -0.107782
-15.24359703 -0.32168099 -2.31259704 -0.819284 -0.562254 -0.112451
-15.23900604 -0.32321399 -2.33009696 -0.856822 -0.507273 -0.092361
-15.27449322 -0.29220501 -2.35793209 -0.653540 -0.750469 -0.098398
-15.28139687 -0.29742900 -2.26606703 -0.582087 -0.812698 -0.026395
-15.24512672 -0.34237599 -2.21092391 -0.927836 -0.363884 -0.081907
-15.25895119 -0.31464300 -2.25196505 -0.748056 -0.657648 -0.088950
-15.24983215 -0.32260299 -2.25120807 -0.820473 -0.562899 -0.099846
-15.27244473 -0.30619100 -2.26596808 -0.627778 -0.777316 -0.040911
-15.26488495 -0.30944601 -2.27019811 -0.675141 -0.735344 -0.058770
-15.25575161 -0.30741099 -2.33928108 -0.709190 -0.700453 -0.080093
-15.24660873 -0.31268200 -2.35217094 -0.761472 -0.641624 -0.092078
-15.25696468 -0.31196600 -2.26339793 -0.709654 -0.700982 -0.070821
-15.26708984 -0.31159201 -2.25429392 -0.687667 -0.724684 -0.044136
-15.25967216 -0.31553200 -2.23119998 -0.768424 -0.629783 -0.113567
-15.24820328 -0.31521499 -2.32760692 -0.740466 -0.663917 -0.104519
-15.23171997 -0.34586400 -2.37093997 -0.922819 -0.361103 -0.134203
-15.23097324 -0.36322501 -2.27006292 -0.992444 -0.055324 -0.109519
-15.26661587 -0.30061999 -2.33505297 -0.638349 -0.762186 -0.107620
-15.26775932 -0.29629701 -2.34819508 -0.642083 -0.761473 -0.088814
-15.23988819 -0.32047099 -2.35020399 -0.806698 -0.585252 -0.081964
-15.23478413 -0.33092201 -2.34988403 -0.877910 -0.463936 -0.118482
-15.23592472 -0.32734099 -2.36266088 -0.842596 -0.527525 -0.108396
-15.23013687 -0.35051599 -2.32249498 -0.961735 -0.255521 -0.098870
-15.23344994 -0.34096399 -2.36207604 -0.922474 -0.367065 -0.119605
-15.23841381 -0.31863499 -2.37159991 -0.804435 -0.574597 -0.150738
-15.23817253 -0.31729800 -2.38814402 -0.793865 -0.577495 -0.190467
-15.24698067 -0.32276201 -2.24054503 -0.828614 -0.551929 -0.093669
-15.23712921 -0.33341399 -2.30933690 -0.901546 -0.423851 -0.086979
-15.24024868 -0.32682601 -2.29883409 -0.854015 -0.512977 -0.086680
-15.24009323 -0.33441699 -2.28914809 -0.894122 -0.440842 -0.078771
-15.25057125 -0.33204401 -2.17783403 -0.890746 -0.452807 -0.039198
-15.23773575 -0.36343399 -2.25294900 -0.992988 -0.055104 -0.104584
-15.24743652 -0.31832299 -2.28699803 -0.774894 -0.628796 -0.064455
-15.25331879 -0.31383699 -2.30094790 -0.723774 -0.682500 -0.101712
-15.24507999 -0.32182199 -2.28961301 -0.823947 -0.561198 -0.078539
-15.25045776 -0.31586799 -2.28133512 -0.759391 -0.647420 -0.064598
-15.25233841 -0.32132900 -2.21161389 -0.812739 -0.576829 -0.081993
-15.24768353 -0.34100801 -2.17361307 -0.939047 -0.338266 -0.061384
-15.24520397 -0.35141000 -2.14642406 -0.965657 -0.254774 -0.050955
-15.28461838 -0.30344400 -2.14460111 -0.668459 -0.740647 -0.067857
-15.23618317 -0.33639100 -2.26743698 -0.920152 -0.383958 -0.076792
-15.23488235 -0.35007200 -2.27273297 -0.963287 -0.247556 -0.103896
-15.28720284 -0.30375001 -2.07765007 -0.674190 -0.738398 -0.015354
-15.25851345 -0.33194301 -2.07361507 -0.859044 -0.509320 -0.051348
-15.25159645 -0.32104099 -2.22343993 -0.804200 -0.586849 -0.094186
-15.27473640 -0.31267101 -2.06648397 -0.715147 -0.698221 -0.032443
-15.24246788 -0.35061499 -2.17477989 -0.977651 -0.206512 -0.039393
-15.25298595 -0.33052501 -2.15932012 -0.872350 -0.485254 -0.059447
-15.24135590 -0.35907900 -2.17574310 -0.989384 -0.140362 -0.037658
-15.27368736 -0.31199700 -2.08664799 -0.715971 -0.695884 -0.055958
-15.26868725 -0.31604701 -2.08087397 -0.736970 -0.674491 -0.044019
-15.26168346 -0.31428200 -2.16251802 -0.758230 -0.651318 -0.029541
-15.24405098 -0.37066001 -2.06996799 -0.991300 -0.090745 -0.095339
-15.26080608 -0.44979501 -2.15491891 -0.876011 0.475148 -0.082695
-15.25454617 -0.43437400 -2.14926410 -0.924521 0.372769 -0.079398
-15.25710297 -0.44019800 -2.14530802 -0.901274 0.426630 -0.075449
-15.29182053 -0.30796900 -1.86680996 -0.822670 -0.565850 -0.055033
-15.26309013 -0.32156301 -2.13042498 -0.805527 -0.588049 -0.072970
-15.28821278 -0.30180201 -2.06167507 -0.679964 -0.733021 0.018151
-15.29602909 -0.29854199 -2.04867101 -0.684525 -0.728957 0.006942
-15.27976894 -0.30842301 -2.11458111 -0.674419 -0.732936 -0.089240
-15.29243946 -0.28801000 -2.24245811 -0.609733 -0.791951 -0.032239
-15.26898861 -0.31641501 -2.20368910 -0.745926 -0.661919 -0.073868
-15.30187988 -0.28112900 -2.23012900 -0.622368 -0.781150 -0.049619
-15.24079323 -0.36147001 -2.22015595 -0.989624 -0.110475 -0.091869
-15.27857113 -0.30840701 -2.20621395 -0.686437 -0.724010 -0.067921
-15.27649212 -0.30470699 -2.22356892 -0.658910 -0.746570 -0.092043
-15.26453304 -0.31441900 -2.21706009 -0.744029 -0.662171 -0.089167
-15.25512886 -0.32584000 -2.19280410 -0.839289 -0.536172 -0.090077
-15.26089859 -0.32322201 -2.11504793 -0.810211 -0.579956 -0.084907
-15.25233841 -0.33121201 -2.18610501 -0.894346 -0.445143 -0.044650
-15.25721455 -0.33855501 -2.05603290 -0.899646 -0.434358 -0.044377
-15.26648235 -0.32130101 -2.09020901 -0.766093 -0.641016 -0.046904
-15.28832531 -0.30292001 -1.98523295 -0.746320 -0.665410 -0.015345
-15.28391647 -0.31344000 -1.99737501 -0.763373 -0.645282 -0.029523
-15.25510406 -0.34229600 -2.04816389 -0.907872 -0.415604 -0.055145
-15.28060341 -0.31992400 -1.98714697 -0.790964 -0.610495 -0.040888
-15.26136780 -0.33201000 -2.02362704 -0.854880 -0.516807 -0.045723
-15.24531555 -0.37618801 -1.98817003 -0.988138 0.066341 -0.138502
-15.25288773 -0.34286299 -2.06615400 -0.919688 -0.388431 -0.057397
-15.28039169 -0.31099400 -2.09684801 -0.681994 -0.730201 -0.041118
-15.24621868 -0.34428701 -2.13727093 -0.944470 -0.320049 -0.074460
-15.24308586 -0.35594201 -2.13268995 -0.977651 -0.198452 -0.069397
-15.23767567 -0.34320101 -2.24031901 -0.948432 -0.301236 -0.098658
-15.24738789 -0.35565200 -2.09286904 -0.958028 -0.278630 -0.067431
-15.24548340 -0.35766599 -2.07672405 -0.961296 -0.270168 -0.054034
-15.23657513 -0.34872600 -2.24348497 -0.967273 -0.238350 -0.087017
-15.24656773 -0.34761700 -2.19578505 -0.954019 -0.286855 -0.086965
-15.24654770 -0.37814701 -2.10097599 -0.999928 0.010901 0.004955
-15.24560642 -0.36536199 -2.14930701 -0.993570 -0.097673 -0.057257
-15.24468040 -0.37558499 -2.11713004 -0.998543 -0.043050 0.032550
-15.25034714 -0.35092899 -2.06106901 -0.928114 -0.368341 -0.054129
-15.24597168 -0.38285899 -2.00024796 -0.981211 0.179387 -0.071032
-15.24746609 -0.35310599 -2.11030507 -0.958847 -0.283603 -0.013505
-15.25092411 -0.38692299 -1.97855997 -0.970583 0.177748 -0.162403
-15.24871922 -0.37049401 -2.03232789 -0.994521 -0.081299 -0.065707
-15.25304890 -0.33506301 -2.11435604 -0.887415 -0.454123 -0.079159
-15.24809837 -0.37916100 -2.10927105 -0.999686 -0.001001 0.025017
-15.25720215 -0.33924600 -2.01693892 -0.879754 -0.473294 -0.045011
-15.24206924 -0.37005201 -2.13023901 -0.995771 -0.091109 0.011791
-15.25406265 -0.43243399 -2.19857907 -0.920782 0.377862 -0.096853
-15.25180435 -0.42649901 -2.21259594 -0.938551 0.334913 -0.083397
-15.23454285 -0.38235000 -2.07917500 -0.996525 0.062079 -0.055544
-15.23237991 -0.38784701 -2.08239293 -0.989418 0.130460 -0.063498
-15.24367046 -0.38728800 -2.13420200 -0.993538 0.111127 0.023106
-15.24536324 -0.34475100 -2.14828897 -0.950880 -0.304127 -0.057746
-15.24411106 -0.35223401 -2.18291903 -0.975096 -0.213569 -0.059799
-15.24438572 -0.38392201 -2.15793896 -0.993622 0.091148 -0.066391
-15.23360443 -0.35646001 -2.29701400 -0.985490 -0.148596 -0.082025
-15.23339272 -0.38106900 -2.26964903 -0.990782 0.070032 -0.115955
-15.25123501 -0.33287200 -2.19345999 -0.893260 -0.440378 -0.090298
-15.24435520 -0.35332200 -2.16167498 -0.977830 -0.204662 -0.044284
-15.24010563 -0.38377899 -2.16854692 -0.997176 0.059164 -0.046255
-15.23385143 -0.36511901 -2.23772407 -0.992469 -0.034686 -0.117485
-15.23468971 -0.36853299 -2.25874805 -0.993202 -0.016462 -0.115233
-15.23869705 -0.34440100 -2.28486609 -0.951506 -0.297264 -0.079184
-15.23757076 -0.34734401 -2.25909805 -0.967933 -0.231545 -0.097426
-15.23817921 -0.34582099 -2.25214410 -0.963405 -0.253260 -0.087814
-15.23863411 -0.38512799 -2.24961710 -0.990240 0.093812 -0.103078
-15.23113728 -0.37377301 -2.26682591 -0.992576 0.032379 -0.117233
-15.22238922 -0.38777399 -2.34342289 -0.987389 0.095554 -0.126225
-15.22132015 -0.39412001 -2.34315610 -0.978656 0.152566 -0.137682
-15.23546124 -0.37620300 -2.24256992 -0.993140 0.052743 -0.104364
-15.24305344 -0.33551899 -2.24876499 -0.899859 -0.424199 -0.101530
-15.23812008 -0.35754400 -2.24627304 -0.986010 -0.132342 -0.101343
-15.24083138 -0.35098401 -2.21077704 -0.971491 -0.218804 -0.091273
-15.23051834 -0.38830701 -2.29473305 -0.978329 0.166971 -0.122446
-15.22394085 -0.39651299 -2.34113312 -0.973303 0.185571 -0.135076
-15.23742867 -0.37562400 -2.25099897 -0.994477 0.031867 -0.099997
-15.24091339 -0.39660600 -2.25872993 -0.981875 0.158993 -0.103164
-15.23258114 -0.33706999 -2.35307503 -0.906082 -0.407806 -0.112738
-15.22864437 -0.35299999 -2.36436605 -0.950762 -0.280574 -0.131644
-15.22622013 -0.36032501 -2.36000800 -0.970554 -0.200232 -0.133913
-15.23085403 -0.34550899 -2.33821106 -0.938660 -0.321014 -0.125967
-15.22695446 -0.34940600 -2.34597206 -0.950956 -0.282502 -0.125998
-15.22664261 -0.42177099 -2.37840891 -0.918451 0.383484 -0.096895
-15.23103142 -0.35468501 -2.31455588 -0.977002 -0.190965 -0.094867
-15.23385620 -0.40205699 -2.30122399 -0.962691 0.242292 -0.120498
-15.22390366 -0.39873901 -2.36101794 -0.971336 0.196807 -0.133321
-15.24168396 -0.35149699 -2.22161102 -0.967848 -0.229594 -0.102747
-15.23636913 -0.33513501 -2.30030394 -0.907704 -0.410595 -0.086513
-15.24123001 -0.38429099 -2.20855904 -0.993801 0.079729 -0.077483
-15.23664188 -0.38783199 -2.25886202 -0.989940 0.098878 -0.101204
-15.27175617 -0.48415801 -2.41028500 -0.681320 0.731685 -0.020985
-15.24938393 -0.43787000 -2.30945301 -0.898989 0.428024 -0.092808
-15.29790878 -0.27434200 -2.32761312 -0.553575 -0.805060 -0.213149
-15.28216553 -0.29076999 -2.31515598 -0.548853 -0.824019 -0.140542
-15.28716373 -0.28633001 -2.33314705 -0.566957 -0.811002 -0.144343
-15.29060364 -0.29216099 -2.20483208 -0.637004 -0.769772 -0.040960
-15.29903889 -0.28084099 -2.26429701 -0.578238 -0.815605 0.020701
-15.30689430 -0.28096801 -2.21897006 -0.611785 -0.789810 -0.043800
-15.28864193 -0.29337901 -2.29895592 -0.537454 -0.834583 -0.120891
-15.27261734 -0.30312401 -2.30704594 -0.607141 -0.786490 -0.113196
-15.28471661 -0.28762200 -2.32315993 -0.557787 -0.814997 -0.157018
-15.30478096 -0.27303800 -2.31466103 -0.536207 -0.832957 -0.136623
-15.31680202 -0.27518401 -2.28565502 -0.542791 -0.838605 -0.046047
-15.29731941 -0.28720999 -2.29111099 -0.548605 -0.830827 -0.093594
-15.60018063 -0.36329201 -2.14064407 0.890239 -0.451292 -0.061727
-15.27899933 -0.30630600 -2.18430090 -0.677753 -0.732433 -0.064753
-15.30717087 -0.28300801 -2.18082404 -0.634577 -0.772829 -0.006913
-15.30360699 -0.29159999 -2.08300209 -0.628876 -0.777495 -0.004128
-15.32554054 -0.27409199 -2.08487701 -0.611151 -0.791309 0.018016
-15.31562901 -0.28460699 -2.08649707 -0.614225 -0.788925 -0.018025
-15.31980991 -0.26644501 -2.15049505 -0.607133 -0.794158 -0.026518
-15.30186844 -0.28270501 -2.13757110 -0.649159 -0.754666 -0.095249
-15.30867863 -0.27990201 -2.02107596 -0.671273 -0.741051 -0.015351
-15.29407978 -0.29202700 -2.12460494 -0.647085 -0.755666 -0.101245
-15.31872272 -0.28364199 -2.09556007 -0.621156 -0.782458 -0.043863
-15.29855347 -0.29076999 -2.06683993 -0.649267 -0.759601 0.038192
-15.30275154 -0.29006299 -2.10434198 -0.642326 -0.764809 -0.049848
-15.29409790 -0.30241901 -2.08801603 -0.644897 -0.764168 -0.012482
-15.27867985 -0.30330601 -2.16855311 -0.682525 -0.730373 -0.026738
-15.31009102 -0.28089401 -1.98316705 -0.671443 -0.740951 -0.012511
-15.29675007 -0.31360301 -1.83981502 -0.854310 -0.515942 -0.062920
-15.29768085 -0.29750201 -1.93281806 -0.761941 -0.638144 -0.110533
-15.29567146 -0.30314800 -1.92251003 -0.766950 -0.630998 -0.116742
-15.27677059 -0.32033801 -1.93944001 -0.830069 -0.542116 -0.130754
-15.28635025 -0.31801799 -1.86151803 -0.847307 -0.527991 -0.057421
-15.29564953 -0.31362399 -1.89119697 -0.798533 -0.597101 -0.076256
-15.27204227 -0.32415801 -1.97627199 -0.828241 -0.556408 -0.066542
-15.31184959 -0.28617901 -1.93108594 -0.748008 -0.657252 -0.092220
-15.30692673 -0.29234600 -1.89148700 -0.771040 -0.633201 -0.067484
-15.30511856 -0.29548001 -1.91285002 -0.755666 -0.647085 -0.101245
-15.30395508 -0.28554499 -1.98923695 -0.700124 -0.713988 -0.006932
-15.29834461 -0.29316500 -1.98741496 -0.719467 -0.694514 -0.004159
-15.30529499 -0.28520101 -1.97801197 -0.708464 -0.705680 -0.009743
-15.31103420 -0.27540699 -1.95790303 -0.644430 -0.763402 -0.043906
-15.56343269 -0.35681999 -1.75295699 0.927190 -0.374219 -0.016718
-15.33509159 -0.27401301 -1.74675202 -0.638876 -0.765786 -0.073550
-15.30461025 -0.30353200 -1.81389594 -0.826122 -0.558805 -0.072517
-15.32175446 -0.28524700 -1.76137805 -0.733987 -0.672455 -0.095228
-15.31135178 -0.29435799 -1.74776900 -0.802730 -0.585538 -0.112999
-15.30045986 -0.31291401 -1.75093806 -0.870200 -0.477392 -0.121857
-15.32575798 -0.27319899 -1.80488002 -0.680776 -0.727425 -0.086008
-15.29338741 -0.31531101 -1.79499495 -0.885697 -0.457448 -0.079254
-15.32709980 -0.27957901 -1.76640999 -0.674019 -0.730311 -0.111102
-15.31433392 -0.28157300 -1.81781399 -0.746288 -0.663526 -0.052797
-15.28101254 -0.34433600 -1.83383596 -0.961212 -0.254173 -0.107088
-15.29643440 -0.31267801 -1.81191897 -0.870172 -0.486231 -0.079871
-15.31520939 -0.29950401 -1.76848996 -0.805220 -0.583894 -0.103383
-15.27229214 -0.33225700 -1.90703797 -0.906862 -0.408434 -0.103839
-15.28699112 -0.33085600 -1.78122497 -0.928397 -0.359771 -0.092974
-15.28727627 -0.32459599 -1.80713201 -0.898631 -0.432166 -0.075458
-15.28471375 -0.33495501 -1.81262803 -0.937277 -0.339747 -0.077996
-15.27817822 -0.35674000 -1.83571303 -0.975573 -0.174075 -0.134000
-15.28620529 -0.33296299 -1.80122697 -0.932160 -0.353394 -0.078680
-15.28711891 -0.35351500 -1.79410100 -0.980118 -0.180964 -0.081373
-15.28561687 -0.41108900 -1.74345601 -0.973673 0.210154 -0.088290
-15.28701401 -0.41552201 -1.75194001 -0.960707 0.259197 -0.099295
-15.27779198 -0.39273301 -1.79153597 -0.992471 0.087739 -0.085460
-15.29244709 -0.33286199 -1.74688101 -0.919863 -0.376993 -0.108300
-15.28470135 -0.32259801 -1.88117802 -0.861551 -0.501752 -0.077301
-15.28376484 -0.35779801 -1.77861798 -0.983550 -0.150482 -0.099920
-15.29176807 -0.32752600 -1.76142204 -0.916618 -0.387747 -0.097279
-15.28322601 -0.35269600 -1.80579102 -0.980680 -0.180174 -0.076181
-15.28617764 -0.34924600 -1.78319097 -0.964192 -0.248372 -0.092980
-15.27352619 -0.34364900 -1.86226106 -0.954342 -0.272481 -0.122419
-15.27643776 -0.34014201 -1.85807395 -0.947296 -0.295279 -0.124258
-15.28366566 -0.33276999 -1.82580304 -0.930957 -0.351635 -0.098350
-15.28156376 -0.33046299 -1.84276295 -0.913699 -0.395891 -0.091781
-15.28421688 -0.34125599 -1.79141295 -0.959859 -0.262250 -0.099474
-15.28125191 -0.33199501 -1.87217605 -0.900054 -0.425757 -0.092918
-15.26414585 -0.36241499 -1.93601799 -0.977160 -0.084597 -0.194942
-15.26669216 -0.34115699 -1.92080295 -0.926753 -0.332285 -0.175256
-15.25486374 -0.37226099 -1.96872497 -0.975699 -0.005857 -0.219035
-15.26206779 -0.37330800 -1.94115102 -0.974797 0.037261 -0.219960
-15.27274704 -0.34341499 -1.89145005 -0.948854 -0.304103 -0.084836
-15.25580788 -0.35628799 -1.97040606 -0.958941 -0.224151 -0.173750
-15.25918102 -0.33238199 -2.03173304 -0.853906 -0.519471 -0.031525
-15.28149986 -0.32689101 -1.89545906 -0.885363 -0.459947 -0.067680
-15.30179310 -0.28909200 -1.94026005 -0.739835 -0.666873 -0.089014
-15.32103539 -0.28151500 -1.85369301 -0.730373 -0.682525 -0.026738
-15.28106976 -0.32167900 -1.90582502 -0.867700 -0.489580 -0.086065
-15.28881454 -0.31525201 -1.92061698 -0.791279 -0.599006 -0.122759
-15.27830791 -0.32664400 -1.92938602 -0.855130 -0.491810 -0.163937
-15.29236221 -0.29725599 -2.01717496 -0.712453 -0.701211 -0.026699
-15.28840733 -0.30399701 -2.00005698 -0.734374 -0.678421 -0.020982
-15.27539921 -0.32318401 -1.99294198 -0.801895 -0.595411 -0.049500
-15.29135418 -0.30378401 -1.97658503 -0.747781 -0.663286 -0.029573
-15.28317261 -0.31079301 -2.03357410 -0.734343 -0.677527 -0.041191
-15.29771519 -0.29271799 -2.00348401 -0.715359 -0.698755 0.001384
-15.29374886 -0.29583800 -2.02831292 -0.715147 -0.698221 -0.032443
-15.26580238 -0.33044401 -2.00932097 -0.848634 -0.527454 -0.040147
-15.30504799 -0.29947001 -1.85148203 -0.808379 -0.587785 -0.032112
-15.29764557 -0.31210500 -1.84885895 -0.839430 -0.541523 -0.045939
-15.31229973 -0.29781500 -1.77647197 -0.804320 -0.586150 -0.097449
-15.28660107 -0.32501799 -1.81799805 -0.918922 -0.385704 -0.082554
-15.30072117 -0.30894899 -1.78189600 -0.867605 -0.490752 -0.080151
-15.27186298 -0.33193600 -1.91416299 -0.904456 -0.404959 -0.134046
-15.28853798 -0.32288101 -1.84569001 -0.871733 -0.485223 -0.068126
-15.28421211 -0.32672200 -1.83543098 -0.916370 -0.387643 -0.099993
-15.30119038 -0.30242199 -1.85875106 -0.819661 -0.571954 -0.032007
-15.31285954 -0.29048201 -1.85829794 -0.770809 -0.636512 -0.026580
-15.30255318 -0.30692300 -1.79608595 -0.848272 -0.525788 -0.063095
-15.29147434 -0.33715200 -1.75109100 -0.931586 -0.349176 -0.101113
-15.24896240 -0.36504900 -2.01100206 -0.991423 -0.129895 -0.014433
-15.27466965 -0.39329800 -1.82874203 -0.983861 0.141241 -0.109854
-15.26467037 -0.34705999 -1.93902099 -0.933913 -0.309454 -0.179012
-15.26547909 -0.33568999 -1.94603598 -0.897714 -0.410915 -0.158926
-15.27511883 -0.35083300 -1.84635198 -0.973011 -0.195612 -0.122415
-15.24794483 -0.35779300 -1.99394095 -0.972739 -0.211031 -0.096150
-15.26412106 -0.32911700 -1.97973001 -0.858009 -0.506296 -0.086510
-15.26282501 -0.33105701 -1.98619604 -0.859701 -0.503962 -0.083288
-15.26787663 -0.32848799 -1.99605799 -0.839993 -0.538890 -0.063316
-15.26367760 -0.33805901 -1.96006405 -0.893591 -0.426130 -0.141093
-15.25367546 -0.35931000 -1.97779500 -0.972496 -0.179244 -0.148735
-15.25607395 -0.35305899 -1.97970498 -0.949714 -0.290080 -0.117886
-15.25282192 -0.35173801 -1.99801600 -0.943392 -0.323187 -0.074582
-15.25564575 -0.35957500 -1.95392704 -0.964908 -0.116920 -0.235124
-15.24785805 -0.36418200 -1.99749899 -0.983096 -0.162049 -0.085226
-15.25371075 -0.36147401 -1.96006894 -0.963479 -0.120273 -0.239253
-15.25630665 -0.35427001 -1.95582998 -0.954272 -0.216697 -0.205929
-15.25548840 -0.34227300 -1.99113405 -0.902988 -0.421944 -0.081090
-15.24718475 -0.37047699 -2.02744889 -0.999268 -0.035871 -0.013324
-15.25299072 -0.36875299 -1.97168696 -0.975911 -0.012949 -0.217785
-15.25133610 -0.39009601 -1.98807204 -0.965194 0.232623 -0.119525
-15.24649143 -0.38578400 -1.99031103 -0.972194 0.205535 -0.112225
-15.26329899 -0.38198000 -1.94744205 -0.967036 0.140355 -0.212465
-15.25156212 -0.38393399 -2.06263900 -0.982521 0.125402 -0.137577
-15.24394894 -0.38461801 -2.06961703 -0.990840 0.072500 -0.113929
-15.25961113 -0.36860901 -1.94851804 -0.971353 -0.037687 -0.234632
-15.26810265 -0.38161200 -1.91538405 -0.986076 0.101105 -0.132032
-15.28530121 -0.35981500 -1.79803097 -0.987010 -0.139993 -0.078820
-15.26856232 -0.37115401 -1.91234100 -0.986526 -0.017068 -0.162714
-15.25665188 -0.38629401 -1.95885706 -0.962660 0.155859 -0.221346
-15.28003597 -0.38927400 -1.81126595 -0.992409 0.078618 -0.094569
-15.26879025 -0.37275800 -1.87187600 -0.993952 -0.032063 -0.105034
-15.27706146 -0.37711900 -1.81969297 -0.991973 -0.005493 -0.126331
-15.26749897 -0.37817100 -1.88386095 -0.993586 0.020906 -0.111132
-15.28267574 -0.38436499 -1.76483202 -0.995376 -0.009664 -0.095565
-15.27785778 -0.38473800 -1.84995997 -0.987585 0.090636 -0.128304
-15.26852894 -0.38723701 -1.87225604 -0.989880 0.089356 -0.110245
-15.24868774 -0.36473501 -1.98621202 -0.983029 -0.127273 -0.132121
-15.26740742 -0.38707200 -1.89936495 -0.988781 0.109083 -0.102045
-15.27285957 -0.40898201 -1.87894905 -0.965777 0.236647 -0.106172
-15.27516747 -0.39035401 -1.85360599 -0.982189 0.125360 -0.139965
-15.27695847 -0.41528901 -1.88652205 -0.956353 0.278235 -0.089294
-15.27241516 -0.40747699 -1.88649702 -0.969913 0.223244 -0.097117
-15.27551746 -0.41346699 -1.89484096 -0.957264 0.273319 -0.094561
-15.28076363 -0.40022200 -1.81039202 -0.985629 0.141826 -0.091770
-15.26851463 -0.41717100 -1.95347404 -0.930336 0.339428 -0.138795
-15.26864433 -0.40631500 -1.95373094 -0.943247 0.289916 -0.161972
-15.26904011 -0.39887601 -1.92112803 -0.971818 0.194364 -0.133387
-15.27038956 -0.40854800 -1.92095006 -0.964156 0.224494 -0.141444
-15.27134037 -0.42289600 -1.92840600 -0.939932 0.308777 -0.145547
-15.28111458 -0.42517301 -1.85086203 -0.937232 0.332132 -0.106229
-15.27880287 -0.41635099 -1.85528600 -0.951957 0.283871 -0.114869
-15.27993107 -0.40601200 -1.80143905 -0.979389 0.183711 -0.083948
-15.28776455 -0.41944900 -1.77222002 -0.951080 0.302441 -0.063062
-15.29258347 -0.43369401 -1.80820298 -0.914756 0.397072 -0.074536
-15.28731728 -0.42290699 -1.82416296 -0.945659 0.315220 -0.079786
-15.28371525 -0.36979499 -1.77351904 -0.989954 -0.082399 -0.114895
-15.28316307 -0.43172500 -1.84443605 -0.928069 0.359034 -0.098904
-15.27850056 -0.37628099 -1.80739498 -0.996291 -0.016052 -0.084540
-15.28372955 -0.40561101 -1.76595998 -0.985004 0.144467 -0.094322
-15.28823662 -0.42250299 -1.79011798 -0.943260 0.327359 -0.055638
-15.28647614 -0.43533599 -1.85338295 -0.919441 0.379561 -0.102769
-15.28711224 -0.41209501 -1.81705499 -0.962242 0.262430 -0.072263
-15.28674507 -0.44192901 -1.89172494 -0.900806 0.424804 -0.089942
-15.29688358 -0.45365301 -1.84843302 -0.864905 0.490351 -0.107220
-15.27780533 -0.43248701 -1.92016304 -0.914496 0.371735 -0.159719
-15.30539131 -0.45386299 -1.75559497 -0.871318 0.487441 -0.056615
-15.28727913 -0.43127900 -1.83757401 -0.930957 0.351635 -0.098350
-15.29803562 -0.44255799 -1.77103806 -0.888775 0.453344 -0.067519
-15.30039310 -0.45226300 -1.77715003 -0.873148 0.484163 -0.056555
-15.29586792 -0.44180599 -1.79522300 -0.897328 0.437090 -0.061274
-15.29332066 -0.44672999 -1.82164800 -0.890715 0.446052 -0.087543
-15.28811646 -0.43564001 -1.82187104 -0.917534 0.388969 -0.082673
-15.29658318 -0.45107600 -1.86227000 -0.871158 0.483977 -0.082767
-15.27326965 -0.42177799 -1.91151798 -0.943662 0.302887 -0.133270
-15.26812553 -0.38161999 -1.90921605 -0.989012 0.075719 -0.126976
-15.26793480 -0.36701801 -1.91956997 -0.985194 -0.026502 -0.169384
-15.24524117 -0.38129699 -1.98464704 -0.977837 0.140401 -0.155311
-15.27149010 -0.41009799 -1.93106794 -0.955520 0.253831 -0.150172
-15.25765133 -0.39216301 -1.95907998 -0.955298 0.204994 -0.213033
-15.26032352 -0.40679601 -2.00149298 -0.940732 0.331946 -0.069538
-15.25378036 -0.39444500 -2.00432491 -0.961124 0.267190 -0.069647
-15.24276924 -0.38363099 -2.09149003 -0.994762 0.102165 -0.003226
-15.25111961 -0.39430600 -2.06832695 -0.964419 0.242065 -0.106304
-15.25292683 -0.38488200 -2.05317211 -0.976326 0.149144 -0.156663
-15.25474453 -0.40465099 -2.03908205 -0.934173 0.331393 -0.132284
-15.25326157 -0.39539599 -2.06428504 -0.960123 0.253348 -0.118229
-15.24639320 -0.37165499 -2.00649309 -0.999657 -0.007061 -0.025218
-15.25972366 -0.41888601 -2.07440710 -0.906679 0.412875 -0.086416
-15.25911903 -0.42378399 -2.05345988 -0.883372 0.456527 -0.106005
-15.24863052 -0.40370899 -2.09500790 -0.952034 0.305790 -0.011142
-15.28769970 -0.45235801 -1.92543805 -0.841756 0.521507 -0.139558
-15.26129723 -0.40135100 -1.97087300 -0.948074 0.279163 -0.152393
-15.26513767 -0.40968901 -1.99066997 -0.933409 0.345160 -0.098042
-15.26903152 -0.41746500 -1.97767603 -0.919863 0.378606 -0.102511
-15.26726246 -0.41302001 -1.97968304 -0.928714 0.354896 -0.107421
-15.27042770 -0.41927099 -1.91917002 -0.950019 0.272778 -0.151842
-15.26478672 -0.42913499 -1.97025299 -0.908186 0.409574 -0.086298
-15.26813984 -0.41420799 -1.96967900 -0.929283 0.344535 -0.133147
-15.27274323 -0.42456400 -1.94536602 -0.926745 0.351144 -0.133572
-15.29858875 -0.44279799 -1.80731404 -0.890287 0.449960 -0.070177
-15.30118561 -0.45132801 -1.81058395 -0.872889 0.481835 -0.076814
-15.27118683 -0.43845400 -1.95580900 -0.893481 0.440487 -0.087542
-15.26370335 -0.43250400 -1.96327901 -0.905248 0.414733 -0.092316
-15.27471733 -0.43442401 -1.99188805 -0.888775 0.453344 -0.067519
-15.26642704 -0.43685099 -2.08893394 -0.874385 0.480842 -0.065129
-15.27157593 -0.44072899 -2.06962109 -0.860991 0.500708 -0.089362
-15.26858330 -0.44557601 -2.08359289 -0.853944 0.514066 -0.080721
-15.25829506 -0.42376000 -2.06292105 -0.882469 0.460235 -0.097114
-15.26884747 -0.40818700 -1.96011698 -0.936545 0.318562 -0.146292
-15.25976753 -0.42195699 -2.10768890 -0.914778 0.402608 -0.033001
-15.25687504 -0.41060200 -2.03402209 -0.928208 0.362979 -0.081704
-15.26148129 -0.43572500 -2.09713292 -0.873098 0.479431 -0.088575
-15.25546265 -0.38910699 -1.96880198 -0.963559 0.176980 -0.200578
-15.27641773 -0.43618301 -1.98423302 -0.881680 0.467746 -0.062090
-15.27992916 -0.44497800 -1.98976803 -0.856842 0.513552 -0.045680
-15.25360775 -0.40088001 -2.01716900 -0.952475 0.299641 -0.054828
-15.25662136 -0.40252301 -1.99020195 -0.953102 0.286323 -0.098056
-15.25318718 -0.39672101 -1.99583697 -0.959890 0.264131 -0.094056
-15.25799656 -0.39536500 -1.97505498 -0.956477 0.245420 -0.157865
-15.25134754 -0.41094899 -2.07064390 -0.916894 0.389850 -0.085577
-15.24917221 -0.39510599 -2.09732008 -0.971406 0.236547 0.020413
-15.24988842 -0.39069200 -2.01678610 -0.976135 0.213041 -0.042127
-15.23536205 -0.38479701 -2.08621502 -0.995102 0.089064 -0.042883
-15.24795723 -0.37643000 -1.97820497 -0.977014 0.064485 -0.203190
-15.24735069 -0.37202799 -1.98157799 -0.986039 0.005660 -0.166415
-15.24126339 -0.37464499 -2.12242293 -0.998536 -0.011406 0.052882
-15.24664116 -0.40475401 -2.17182899 -0.976425 0.193804 -0.095050
-15.24454212 -0.39060700 -2.18062901 -0.994314 0.083696 -0.065841
-15.23660469 -0.39265800 -2.07865310 -0.980333 0.188387 -0.058796
-15.23278999 -0.38968199 -2.07881498 -0.986175 0.153613 -0.062149
-15.24415493 -0.38410401 -2.12422109 -0.995448 0.071655 0.062836
-15.25151062 -0.42083901 -2.17565203 -0.952139 0.291258 -0.092732
-15.24214745 -0.36719599 -2.08254099 -0.991192 -0.117754 -0.060592
-15.24305725 -0.39241400 -2.07437706 -0.976186 0.204546 -0.072265
-15.24209118 -0.36966401 -2.07532811 -0.992944 -0.087180 -0.080387
-15.23904419 -0.42056999 -2.31610703 -0.923875 0.365444 -0.113602
-15.24365902 -0.37317199 -2.17267299 -0.998708 -0.040785 -0.030327
-15.25128746 -0.41270399 -2.07699108 -0.919879 0.383396 -0.082640
-15.25521469 -0.41428101 -2.07678890 -0.917104 0.389939 -0.082879
-15.24157906 -0.41141501 -2.19621110 -0.968566 0.226632 -0.102554
-15.22027874 -0.38646200 -2.35835409 -0.989566 0.065817 -0.128170
-15.23110199 -0.39499801 -2.29878211 -0.972571 0.190973 -0.132796
-15.23651028 -0.41238099 -2.26465297 -0.966112 0.245622 -0.079355
-15.24037075 -0.41639200 -2.23633504 -0.965168 0.249198 -0.079693
-15.24180984 -0.40260401 -2.22119308 -0.981559 0.168233 -0.090773
-15.24068737 -0.40426299 -2.21038389 -0.982909 0.164418 -0.082809
-15.23941517 -0.41143000 -2.29996800 -0.952114 0.287604 -0.103748
-15.24248028 -0.41357699 -2.24671698 -0.967806 0.242886 -0.066015
-15.24394894 -0.42010099 -2.24724293 -0.948923 0.308561 -0.065844
-15.23838806 -0.41089201 -2.29123402 -0.960305 0.265398 -0.085902
-15.24876118 -0.44438300 -2.28983903 -0.890028 0.448485 -0.081921
-15.24583626 -0.42626801 -2.24407601 -0.936240 0.347672 -0.050784
-15.24236488 -0.40543899 -2.24557805 -0.974641 0.206817 -0.085451
-15.24061298 -0.45177600 -2.42298293 -0.838437 0.544916 0.009512
-15.22704506 -0.36672199 -2.32417893 -0.989566 -0.065817 -0.128170
-15.22564602 -0.37394401 -2.32641912 -0.989995 -0.032886 -0.137216
-15.23219681 -0.39792699 -2.31700206 -0.956862 0.247487 -0.152198
-15.22963715 -0.38988900 -2.31042790 -0.973756 0.183132 -0.135139
-15.22766018 -0.38399199 -2.31888103 -0.983674 0.119783 -0.134302
-15.22051144 -0.39806199 -2.34964395 -0.970005 0.207767 -0.126190
-15.22680473 -0.33233100 -2.38854599 -0.891196 -0.414341 -0.184636
-15.22561169 -0.37018400 -2.31377912 -0.992692 -0.023240 -0.118415
-15.22348881 -0.36829400 -2.35373497 -0.988448 -0.071019 -0.133889
-15.22279358 -0.37889999 -2.34322810 -0.989638 0.032950 -0.139754
-15.21980953 -0.41416299 -2.40797806 -0.957689 0.282120 -0.056930
-15.22533607 -0.41667101 -2.40315199 -0.946044 0.318790 -0.058079
-15.23196316 -0.40137500 -2.29251695 -0.968409 0.227189 -0.102806
-15.23672295 -0.39035800 -2.28546810 -0.980515 0.169728 -0.098906
-15.23517990 -0.39101201 -2.28047299 -0.983288 0.155256 -0.095079
-15.24114323 -0.39180800 -2.25389004 -0.984910 0.140018 -0.101722
-15.23750687 -0.40532401 -2.27884507 -0.968928 0.234398 -0.078968
-15.23308945 -0.39572001 -2.32260489 -0.967893 0.206947 -0.142677
-15.23467064 -0.40020400 -2.32594395 -0.953111 0.260668 -0.153728
-15.23609257 -0.42194599 -2.34801698 -0.912898 0.382828 -0.141632
-15.21934032 -0.38632500 -2.38646698 -0.994113 0.084057 -0.068366
-15.23818779 -0.40727800 -2.28467298 -0.965107 0.251054 -0.074433
-15.22539616 -0.37925601 -2.33372593 -0.990111 0.030552 -0.136918
-15.23445988 -0.43022600 -2.36194396 -0.900001 0.418310 -0.122535
-15.24777031 -0.44129899 -2.32274199 -0.885734 0.452020 -0.105612
-15.23235226 -0.39552799 -2.27293706 -0.980975 0.171397 -0.091169
-15.24226189 -0.42173001 -2.25669003 -0.950511 0.303080 -0.068354
-15.25156879 -0.43364400 -2.25840998 -0.907586 0.416926 -0.049602
-15.22740459 -0.40224600 -2.34012198 -0.953091 0.267184 -0.142233
-15.23783302 -0.44391799 -2.38351703 -0.854062 0.510720 -0.098711
-15.23488140 -0.40318400 -2.31934905 -0.952539 0.265856 -0.148291
-15.24161339 -0.43289599 -2.31773210 -0.899841 0.421232 -0.113355
-15.23894501 -0.41418600 -2.25747490 -0.967459 0.240292 -0.079259
-15.25570011 -0.44081101 -2.21132398 -0.880473 0.472216 -0.042186
-15.24261856 -0.42752701 -2.22888494 -0.936264 0.345354 -0.064344
-15.24555588 -0.43208900 -2.23242807 -0.923298 0.382190 -0.038088
-15.24228382 -0.40563601 -2.25823593 -0.971175 0.221233 -0.088743
-15.25835323 -0.44654900 -2.24867797 -0.874060 0.483142 -0.050929
-15.24600983 -0.43432400 -2.29039311 -0.910561 0.405452 -0.080544
-15.24507427 -0.43339601 -2.28216910 -0.915377 0.396168 -0.071662
-15.23610878 -0.41623399 -2.26093698 -0.967062 0.242709 -0.076711
-15.23165321 -0.42084000 -2.35215807 -0.922212 0.360261 -0.140488
-15.25278759 -0.45961201 -2.33871198 -0.816980 0.567388 -0.103029
-15.25381184 -0.46247900 -2.32879496 -0.821701 0.564473 -0.078598
-15.24679947 -0.44078499 -2.33391094 -0.880454 0.456691 -0.127415
-15.24572563 -0.44192100 -2.33847690 -0.875837 0.464524 -0.130872
-15.24193573 -0.41956401 -2.29610300 -0.938551 0.334913 -0.083397
-15.24715805 -0.43123001 -2.30302501 -0.910561 0.405452 -0.080544
-15.24961662 -0.43889999 -2.30019808 -0.899846 0.428564 -0.081303
-15.26630878 -0.47747099 -2.37248302 -0.730670 0.678376 -0.076989
-15.24332047 -0.44273400 -2.36743593 -0.860991 0.500708 -0.089362
-15.24720383 -0.43015200 -2.29595995 -0.917391 0.390465 -0.077012
-15.23304653 -0.43449700 -2.37577105 -0.885116 0.454519 -0.099910
-15.24665356 -0.45106599 -2.35522008 -0.840282 0.531842 -0.105215
-15.27518082 -0.48627701 -2.37932801 -0.689396 0.721192 -0.067928
-15.23899841 -0.42703199 -2.32820511 -0.905994 0.401568 -0.133856
-15.25727654 -0.45525801 -2.29331708 -0.857073 0.506258 -0.095547
-15.25636196 -0.45477599 -2.31622791 -0.859899 0.504079 -0.080483
-15.26911259 -0.46741399 -2.27306700 -0.794739 0.603545 -0.064207
-15.24284554 -0.42514500 -2.30767989 -0.919831 0.380197 -0.096753
-15.23799896 -0.41230601 -2.30670190 -0.947810 0.298262 -0.112677
-15.25362301 -0.43936300 -2.25429010 -0.897552 0.438653 -0.044540
-15.27042389 -0.46504101 -2.24971390 -0.793512 0.605463 -0.061259
-15.24587727 -0.43358901 -2.24093604 -0.916234 0.397611 -0.049203
-15.24649429 -0.42960599 -2.22507310 -0.934752 0.349378 -0.064602
-15.25989532 -0.44888899 -2.18415689 -0.869176 0.488474 -0.076980
-15.26413536 -0.44573200 -2.12289596 -0.880714 0.462269 -0.103198
-15.26281261 -0.44543201 -2.11555910 -0.876192 0.470048 -0.106506
-15.25848389 -0.45275000 -2.20508289 -0.860978 0.506050 -0.051298
