-0.09770800 -0.12595201 -0.36024699 -0.185727 0.979621 -0.076476
-0.12484600 -0.09364500 -0.08356000 -0.183285 0.965822 -0.183285
0.01957800 -0.04321000 -0.37645900 -0.775924 0.630000 -0.032272
-0.00078700 -0.05606300 -0.69855100 -0.786330 0.617732 -0.009674
0.02059400 -0.05541100 -1.09591496 -0.844930 0.532096 -0.054467
0.02876300 -0.01262200 -0.74800003 -0.886001 0.463590 -0.009298
-0.18984400 -0.10401800 -0.73505402 0.438294 0.898831 0.001308
-0.19059099 -0.10052000 -0.70491600 0.443437 0.896140 -0.017208
-0.01376500 -0.09429400 -1.22443902 -0.526823 0.848226 -0.054499
-0.03952500 -0.08723900 -0.58088398 -0.582647 0.812385 -0.023527
0.04132200 0.00366200 -0.92759198 -0.952305 0.305084 -0.006176
-0.03966200 -0.09659700 -0.47401199 -0.537320 0.838220 0.093136
0.01636700 0.18662800 -0.76127499 -0.688264 -0.724858 0.029557
0.02729600 0.00505700 -0.11683100 -0.724865 0.670158 -0.159561
0.03879700 0.00128600 -0.89924401 -0.950403 0.310105 -0.023854
0.00178800 -0.04836200 -0.66998899 -0.798882 0.600904 -0.026490
0.07689200 0.13719900 -0.24203800 -0.983109 -0.055737 0.174327
-0.05951800 -0.10693000 -0.81178600 -0.394787 0.918565 -0.019544
0.00454600 -0.04269100 -0.68236703 -0.798882 0.600904 -0.026490
-0.03867500 -0.10287700 -0.36819100 -0.468880 0.876849 -0.106242
-0.05129000 -0.09698700 -0.54807699 -0.517465 0.855122 0.031569
0.12361300 0.14926000 0.30214000 -0.147878 0.911211 -0.384483
-0.05498300 -0.10102100 -0.50584102 -0.463144 0.879548 0.109058
-0.05469300 -0.08034800 -0.19128400 -0.533271 0.843996 -0.057386
-0.03957000 -0.06383900 -0.16309100 -0.592854 0.797791 -0.109788
0.13294700 0.13725001 0.07029400 -0.850523 0.502649 0.154775
0.07283900 0.06759900 -0.26398900 -0.985683 0.165244 0.033511
-0.12007400 -0.11960400 -0.87441701 -0.046293 0.998902 0.007201
0.00778500 -0.05835800 -0.87594199 -0.767080 0.636575 -0.079753
-0.00215100 -0.07545500 -0.95561999 -0.676192 0.735731 -0.038275
-0.01828900 -0.08947000 -0.91794503 -0.588334 0.808090 -0.029208
0.02372600 -0.05790100 -1.17433703 -0.793462 0.606097 -0.055358
-0.02214500 -0.09580200 -1.11271095 -0.507237 0.861627 -0.017584
0.03733500 -0.02687500 -1.17455101 -0.941626 0.333627 -0.045085
-0.01461100 -0.07707500 -0.84431398 -0.646159 0.762100 -0.041004
0.03313200 -0.02845500 -1.07774198 -0.890306 0.453908 -0.036367
0.03930500 0.14300901 -0.94395202 -0.935283 -0.352182 0.034831
0.05171900 0.00925400 -0.23212700 -0.881498 0.470042 -0.044961
-0.09494700 -0.11709900 -1.08692598 -0.133970 0.990935 0.009965
0.02170300 -0.07951200 -1.59163702 -0.653561 0.754109 -0.064638
0.03267400 -0.01956100 -0.20337801 -0.753421 0.646427 -0.120369
0.06292400 0.02819300 -0.26941100 -0.914313 0.403876 0.030258
0.00100000 -0.07476200 -1.03056395 -0.642920 0.765647 0.020919
0.02664000 -0.01252500 -0.58106899 -0.895470 0.444399 0.025356
0.04935900 0.03710000 -0.54824197 -0.961772 0.264836 0.069694
-0.00684300 -0.05340100 -0.60912597 -0.735465 0.675252 -0.055913
0.03107100 -0.02553900 -0.26047799 -0.769207 0.638927 0.009702
0.06686500 0.03790600 -0.29092401 -0.939381 0.332559 0.083471
0.07045400 0.05819200 -0.17042500 -0.927615 0.372343 0.029839
-0.04019100 -0.07933700 -0.27172500 -0.558412 0.823911 -0.096676
0.01763000 -0.00240300 -0.08811200 -0.687701 0.708955 -0.156365
0.03758900 0.02339400 -0.08503900 -0.728229 0.678209 -0.098568
0.05182100 0.06631000 -0.89218998 -0.995047 0.099398 0.001069
-0.03437400 -0.08742800 -0.49181700 -0.594807 0.787555 0.161125
0.02230700 -0.01972800 -0.51868600 -0.880044 0.472185 0.050640
-0.13540900 -0.02628200 1.45394301 -0.898919 0.433820 -0.061197
-0.18503000 -0.05764900 0.73995602 -0.584628 0.810666 -0.032092
-0.10576000 -0.07096100 0.06306200 -0.399028 0.914943 -0.060459
-0.05265400 0.03864000 0.45293999 -0.984068 0.131612 -0.119537
-0.03501300 0.07080100 0.35222599 -0.935777 -0.067123 -0.346145
0.02695100 0.02368600 0.12380400 -0.539495 0.837148 -0.090154
0.09469000 0.09969800 0.15048601 -0.663508 0.740351 -0.107876
-0.04133900 -0.00247600 0.16317999 -0.563307 0.816280 -0.127957
-0.01708700 0.00531500 0.11399300 -0.487186 0.868461 -0.091789
0.01991200 0.01799900 0.07482900 -0.549982 0.832749 -0.063623
0.00406900 0.01052100 0.05709400 -0.546304 0.835606 -0.057580
0.00769600 0.00093100 -0.02927700 -0.642594 0.753437 -0.139304
-0.07775700 0.02089600 0.62752402 -0.880115 0.468561 -0.076471
0.00702700 0.01768000 0.18461999 -0.536272 0.838195 -0.099203
-0.05565700 -0.01754500 0.20328499 -0.646127 0.760740 -0.061604
-0.00135000 0.01343800 0.18815701 -0.444383 0.884451 -0.142375
-0.03936000 -0.00541600 0.14275099 -0.550034 0.825784 -0.124674
-0.04131000 0.00917800 0.23522399 -0.574827 0.802957 -0.157590
-0.09821900 -0.03217600 0.43669400 -0.645179 0.756873 -0.104346
-0.06036100 0.06295100 0.57120401 -0.994296 -0.001077 -0.106647
-0.06402700 0.04787000 0.58693397 -0.985068 0.135252 -0.106526
-0.12753201 -0.11790600 -0.34673199 0.027249 0.995121 -0.094825
-0.10176500 -0.00916000 0.62794203 -0.783573 0.614938 -0.088679
-0.02333700 0.01648500 0.20713601 -0.495543 0.849715 -0.180062
0.01755600 0.01596500 0.10698000 -0.520781 0.848945 -0.089888
-0.01939400 0.01262600 0.17537700 -0.439187 0.891084 -0.114386
-0.12233600 -0.04011100 0.57748300 -0.666331 0.739555 -0.095190
-0.13945600 -0.02656300 0.93220598 -0.699379 0.713566 -0.041140
-0.05352900 0.08284400 0.49682599 -0.970124 -0.224647 -0.091616
0.17452300 0.15637800 0.23592199 -0.612990 0.788535 0.049549
-0.02622600 0.10457600 0.31648999 -0.480707 0.022891 -0.876583
-0.06670200 0.11190900 0.49652600 -0.880560 -0.466179 -0.085396
-0.00137800 0.05193200 0.28236699 -0.593404 0.603548 -0.532542
-0.03190500 0.03460800 0.28269199 -0.794233 0.475251 -0.378590
-0.02668500 0.05591800 0.30485699 -0.728319 0.292928 -0.619471
0.06902900 0.08891300 0.21530800 -0.707944 0.643731 -0.290562
0.09330600 0.09589100 -0.08693700 -0.950429 0.296764 0.092820
0.06601400 0.06460900 -0.32632500 -0.984901 0.153630 0.079792
0.04224700 0.04471700 0.16578600 -0.604641 0.792239 -0.082254
0.13910200 0.14868300 0.28562701 -0.295131 0.925314 -0.238101
0.08979900 0.07924800 -0.02455700 -0.834616 0.547497 0.060520
0.06132000 0.03686300 -0.24426199 -0.923954 0.379363 -0.048907
0.07936800 0.07647700 0.02727500 -0.719487 0.694437 -0.009742
0.03987500 0.01783700 -0.72943598 -0.960928 0.276796 -0.001209
0.06257300 0.06272000 -0.39038599 -0.988895 0.139297 0.051805
0.11440000 0.11113100 0.13249600 -0.665216 0.744985 -0.049856
0.12057500 0.14344800 -0.01956400 -0.923457 0.352390 0.151820
0.13175300 0.17036000 0.00677100 -0.939826 0.237386 0.245715
0.15601000 0.16180600 0.10896900 -0.826054 0.524841 0.205372
0.10413900 0.09951900 0.03561100 -0.853944 0.514066 0.080721
0.08594700 0.14672400 -0.18426800 -0.980726 0.008086 0.195221
0.09685500 0.12885299 0.26788101 -0.260906 0.832120 -0.489392
-0.08839000 0.13665700 0.55509198 -0.880263 -0.457965 -0.124121
0.08353700 0.13612600 0.29289800 -0.177502 0.796484 -0.578020
-0.14463000 0.13145600 1.13803899 -0.698673 -0.713019 -0.058821
-0.10233800 0.03690000 0.98729801 -0.996569 0.035708 -0.074662
-0.09172600 0.02565600 0.77570403 -0.918838 0.393036 -0.035492
0.07661600 0.17136100 0.35018900 0.213620 0.696993 -0.684519
0.11892000 0.15619400 0.33457401 -0.096640 0.886569 -0.452388
-0.12005800 0.07438900 1.23941004 -0.939910 -0.334278 -0.069477
-0.12214100 0.07663100 1.27081597 -0.941374 -0.329546 -0.072211
0.16495600 0.15754600 0.17426200 -0.700929 0.706807 0.095514
0.13570100 0.14769000 0.05002300 -0.884179 0.432622 0.176253
0.03724000 -0.01132700 -0.29805499 -0.808301 0.588729 0.006862
0.07056300 0.14070600 -0.29091999 -0.989344 -0.096949 0.108629
0.04430700 0.13506500 -0.67646402 -0.978530 -0.205945 0.008145
0.05827300 0.05215200 -0.51532203 -0.978582 0.198605 0.054165
0.06144100 0.09970900 -0.52125102 -0.997457 -0.052498 0.048212
0.05849300 0.07620800 -0.54606903 -0.993752 0.097251 0.054774
0.05423100 0.10534400 -0.59219098 -0.997420 -0.020139 0.068897
0.07617800 0.10855600 -0.23158699 -0.990946 0.086520 0.102671
0.03354300 -0.01351800 -0.31569701 -0.819403 0.572612 0.026343
0.07429100 0.07007100 -0.20979600 -0.976682 0.212943 0.027361
0.02697100 -0.01146000 -0.68361098 -0.908249 0.418083 -0.017038
0.07709100 0.15520100 -0.23888600 -0.969937 -0.160161 0.183224
0.07581500 0.17103501 -0.22625300 -0.950976 -0.229265 0.207560
0.05925400 0.03868700 -1.63242805 -0.996580 -0.031244 -0.076494
0.05211500 0.09543200 -0.90818501 -0.984462 -0.175594 -0.001133
0.04860400 -0.03302400 -1.52829397 -0.924156 0.380381 -0.035293
0.05908200 0.06104000 -1.69155395 -0.990411 -0.114412 -0.077430
0.05346200 -0.03947400 -1.79086494 -0.914813 0.403860 -0.003871
0.05315100 -0.04044200 -1.72909105 -0.900174 0.434796 -0.025263
0.04705100 -0.04527700 -1.60983098 -0.845457 0.532735 -0.037361
-0.04734800 -0.12560700 -1.66344202 -0.315182 0.948097 -0.042109
0.01326200 -0.09513900 -1.77473795 -0.665649 0.745129 -0.041160
-0.05224500 -0.12992901 -1.76303196 -0.306368 0.951617 -0.023759
0.00846300 -0.08516300 -1.44119096 -0.679774 0.733035 -0.023827
0.04384100 -0.02767600 -1.43641102 -0.946396 0.320574 -0.039593
0.02581900 -0.05503300 -1.19693995 -0.807852 0.588914 -0.023557
0.04367900 -0.04433000 -1.49442005 -0.934255 0.350180 -0.067393
0.01711700 -0.07540000 -1.41872895 -0.719269 0.693833 -0.035328
0.02642600 -0.06217800 -1.37348294 -0.789545 0.612844 -0.032255
0.03447200 -0.05659000 -1.45801997 -0.841873 0.538744 -0.031691
0.03965500 -0.06036900 -1.62514699 -0.847639 0.523918 -0.083770
0.03041100 -0.07130100 -1.62053502 -0.779575 0.625619 -0.029392
0.06423800 0.07220200 -1.77801204 -0.993143 -0.096038 -0.066661
0.04369400 -0.05381300 -1.69971895 -0.869142 0.493738 -0.028563
0.06038500 -0.02332500 -1.77578795 -0.956918 0.289185 -0.026064
0.01538600 -0.09374200 -1.80915296 -0.691541 0.720176 -0.055839
0.05507600 0.08541100 -1.65669596 -0.984723 -0.155984 -0.077397
0.06662500 0.10087500 -1.81373596 -0.986077 -0.129967 -0.103735
0.06423000 0.05275600 -1.72609901 -0.991410 -0.102243 -0.081564
0.05077900 0.15863700 -1.80709898 -0.921754 -0.367875 -0.122625
0.03256400 0.14740001 -1.53742504 -0.926058 -0.370156 -0.073497
0.06354500 0.07981600 -1.72683299 -0.986919 -0.146688 -0.066890
0.06422900 -0.00566700 -1.70318198 -0.977760 0.203249 -0.051714
0.03083800 0.17353700 -1.62253904 -0.873134 -0.470370 -0.128021
0.04753900 0.13470800 -1.65673494 -0.963896 -0.245145 -0.103962
0.05054700 0.11407900 -1.67325699 -0.974139 -0.209186 -0.085407
0.04663500 0.09868600 -1.41454303 -0.985221 -0.171195 -0.005669
0.03047800 0.14506400 -1.39978302 -0.888714 -0.458306 -0.011956
0.03561400 0.13583900 -1.45086396 -0.908283 -0.418305 -0.006516
0.05367000 0.02231200 -1.46872997 -0.998165 0.059452 -0.011473
-0.12874000 -0.13180600 -1.51619697 0.051970 0.998035 -0.035000
0.02239700 0.16287300 -1.31533694 -0.860908 -0.507785 0.031480
0.03645000 0.13916300 -1.17611396 -0.908750 -0.417323 0.003900
0.05170400 0.06070600 -1.22488499 -0.997913 -0.063875 -0.009424
0.04884500 0.10698200 -0.67968100 -0.985231 -0.171197 -0.003401
-0.28283799 -0.02083100 -0.30915001 0.858564 0.507269 0.074474
0.06438500 0.10780800 -0.35811499 -0.993276 -0.029898 0.111840
0.03345900 0.17335600 -0.67408597 -0.890285 -0.452618 0.050291
0.03503900 0.15778500 -0.68691701 -0.918041 -0.393065 0.051965
0.04655900 0.16322701 -0.50603199 -0.921336 -0.382214 0.071078
0.04913600 0.08646100 -1.30943501 -0.973628 -0.217866 0.067699
0.04813700 0.09716400 -1.24491405 -0.974829 -0.222038 0.020185
0.03742500 0.13268299 -1.23074400 -0.943709 -0.330487 0.013823
0.01844200 0.16723301 -1.26709998 -0.835348 -0.549100 -0.026148
0.04058900 0.14324000 -0.82337600 -0.939223 -0.343250 0.006287
0.04568400 0.14002299 -0.61303997 -0.955161 -0.295141 0.023661
0.03611400 0.14853901 -0.99445701 -0.912543 -0.406315 0.046626
0.03693900 -0.00184300 -0.49123400 -0.887261 0.455396 0.073362
0.04539500 -0.00283000 -1.17807496 -0.958206 0.285867 0.011042
0.05140200 0.09115200 -1.12479401 -0.994000 -0.109243 0.005408
0.06622800 0.02663800 -1.70929301 -0.997486 0.039557 -0.058801
0.05419900 -0.03521700 -1.66864598 -0.945474 0.314281 -0.085474
0.04965900 0.08684600 -1.52147305 -0.980726 -0.192369 -0.034225
-0.06915000 -0.12519100 -1.54806900 -0.288159 0.955877 -0.057124
0.05537200 0.14494300 -1.78204000 -0.941893 -0.298516 -0.154029
0.00402800 -0.09678000 -1.69680798 -0.618111 0.786061 -0.006883
0.05557600 -0.00114900 -1.58421302 -0.987291 0.156731 -0.026313
0.00602100 -0.09159000 -1.55970001 -0.625042 0.778811 -0.052680
0.03245600 -0.06394300 -1.54188704 -0.811124 0.584507 -0.020727
0.07032000 0.03631500 -1.79096305 -0.998483 0.038929 -0.038929
0.02363300 0.16106400 -1.49762595 -0.884348 -0.464657 -0.044967
-0.04014000 -0.11851200 -1.58351004 -0.359435 0.931916 -0.048360
0.04025200 0.15060100 -1.63446295 -0.946354 -0.305745 -0.104562
0.05275500 0.02269700 -1.39869595 -0.998340 0.057137 0.007272
-0.00648100 -0.10098200 -1.60564101 -0.564624 0.823703 -0.052097
0.04749000 -0.01330300 -1.37928700 -0.966517 0.256374 0.010833
0.05252800 0.03326000 -1.33253706 -0.999568 0.003026 -0.029251
-0.01091400 -0.09771500 -1.39945197 -0.490804 0.868346 -0.071313
-0.03572800 -0.11094300 -1.41163802 -0.348918 0.936839 -0.024284
0.02007800 -0.07164100 -1.34723401 -0.774326 0.632529 0.018072
0.01401700 -0.08391400 -1.47198904 -0.679964 0.733021 -0.018151
-0.01425900 -0.09969500 -1.44658196 -0.468970 0.882845 -0.025531
-0.01193600 -0.10207800 -1.52000105 -0.440171 0.897629 -0.022607
-0.01589100 -0.10337100 -1.48224902 -0.452864 0.890946 -0.033595
-0.02332000 -0.10257900 -1.34063804 -0.463614 0.885810 -0.020041
-0.05086300 -0.11142400 -1.23131502 -0.331295 0.942321 -0.047696
-0.03104900 -0.10774100 -1.37220800 -0.431745 0.901778 -0.019805
-0.02088400 -0.09804800 -1.24609005 -0.506970 0.860606 -0.048349
-0.10150000 -0.12508100 -1.46782601 -0.101283 0.993910 -0.043407
-0.05222200 -0.11078300 -1.19318295 -0.244752 0.967826 -0.058393
-0.13720900 -0.12741999 -1.46438003 0.028122 0.998861 -0.038538
-0.04716100 -0.11400200 -1.44240999 -0.314251 0.947882 -0.052589
-0.06768100 -0.12812200 -1.60833800 -0.258856 0.964828 -0.045826
-0.03361600 -0.11227600 -1.52142501 -0.367212 0.929137 -0.043125
-0.03499400 -0.11310200 -1.55569601 -0.362127 0.931736 -0.027063
-0.06086200 -0.13374600 -1.73364305 -0.257714 0.964872 -0.051045
-0.03522800 -0.11739200 -1.61873305 -0.416018 0.908284 -0.044143
-0.01866800 -0.11120100 -1.65963304 -0.473342 0.880226 -0.033907
0.00606400 -0.09260800 -1.63546002 -0.621705 0.783043 -0.018081
0.03639600 -0.06936200 -1.73096895 -0.838310 0.544695 -0.023324
-0.03298900 -0.12165400 -1.71420598 -0.360697 0.932123 -0.032320
-0.07270400 -0.13361600 -1.70873201 -0.178157 0.982812 -0.048374
-0.04936900 -0.13543600 -1.86008596 -0.215821 0.975413 -0.044611
-0.01899300 -0.11962900 -1.82059503 -0.494010 0.864871 -0.089177
-0.08481500 -0.14065500 -1.79791605 -0.133227 0.990807 -0.023511
-0.14603600 -0.13948800 -1.82027900 0.182618 0.982880 -0.024427
0.02405900 -0.09198200 -1.88494802 -0.667842 0.728418 -0.152953
0.04330000 -0.07367100 -1.91950202 -0.736030 0.628857 -0.250597
0.06867300 0.00329900 -1.84010696 -0.977876 0.201363 -0.056671
0.06350700 -0.01312400 -1.79658794 -0.963363 0.267397 -0.020757
0.03023300 -0.07654100 -1.78109503 -0.794503 0.606072 0.037967
0.04420700 -0.06046000 -1.82956302 -0.870584 0.491481 -0.023017
-0.00984900 -0.11429100 -1.78623104 -0.489635 0.869691 -0.062418
0.06719000 0.04496300 -1.76491296 -0.999032 -0.003061 -0.043880
0.07089600 0.04106000 -1.83949101 -0.996838 0.005285 -0.079282
0.06583000 0.13646400 -1.85095298 -0.969727 -0.205700 -0.131597
0.05894500 0.03785500 -1.65511203 -0.995264 -0.047394 -0.084868
0.06050200 0.10310700 -1.75595903 -0.985708 -0.145899 -0.084218
0.04613900 0.15574799 -1.75087404 -0.929058 -0.357330 -0.095738
0.05996700 0.15888099 -1.85562801 -0.921058 -0.365367 -0.134755
0.06237600 0.16588500 -1.88588405 -0.922649 -0.353147 -0.154938
0.06131700 0.14408800 -1.82503498 -0.940585 -0.314428 -0.128200
0.06904800 0.11435100 -1.86670196 -0.980898 -0.133815 -0.141181
0.07673300 0.07011400 -1.88190198 -0.989675 -0.016812 -0.142343
0.05052100 0.12978999 -1.69983995 -0.967648 -0.243473 -0.066175
-0.22692101 -0.10765900 -1.72772098 0.501327 0.864687 0.031418
0.03930600 0.15698400 -1.65736103 -0.925490 -0.370999 -0.076343
0.05199900 0.07203100 -1.61113906 -0.988228 -0.134175 -0.073505
0.04539000 0.10406300 -1.57883298 -0.969270 -0.237043 -0.065776
0.05487800 0.01686900 -1.54381800 -0.998073 0.057966 -0.022133
0.05986500 -0.00250000 -1.63577902 -0.983646 0.157335 -0.087675
0.04744200 0.13442400 -1.67823195 -0.964101 -0.257680 -0.064106
0.04993900 0.10555500 -1.61248302 -0.978125 -0.185316 -0.094499
0.04563600 0.09715900 -1.46863902 -0.980379 -0.196541 0.015119
0.03272800 0.14945900 -1.58349597 -0.900879 -0.423371 -0.095779
0.05226500 0.05648000 -1.40097904 -0.998750 -0.046768 -0.017668
0.05111500 0.04431900 -1.43432200 -0.999936 0.002967 0.010880
0.04725400 0.10772200 -1.17383695 -0.983699 -0.178750 0.019605
0.03114000 0.13731600 -1.32201004 -0.918949 -0.394205 0.011632
0.02364400 0.17643499 -0.80997503 -0.832618 -0.553711 -0.012305
0.05892000 0.07224500 -0.42070201 -0.996566 0.076659 0.031311
0.05113600 0.08856800 -0.77406901 -0.996852 -0.077663 0.015958
0.00995500 -0.03366400 -0.17092000 -0.640404 0.749927 -0.165805
0.02241500 -0.02641800 -0.18290900 -0.695733 0.701796 -0.153092
0.04324900 -0.00019800 -1.05034602 -0.946029 0.321317 -0.042245
-0.00891900 -0.05237200 -0.28892601 -0.640053 0.758856 -0.120288
0.05505000 0.13962799 -0.44114500 -0.975581 -0.213975 0.049565
0.03828000 0.17821300 -0.51745802 -0.863912 -0.491413 0.110317
0.01217100 0.17966799 -1.04715204 -0.688842 -0.724878 0.006930
0.03836300 0.13481800 -1.13861001 -0.896243 -0.443515 0.006580
0.04866600 0.10805500 -0.69914001 -0.987304 -0.157923 -0.017042
0.02424000 0.16304100 -1.07616901 -0.854304 -0.518635 0.034392
0.04479400 0.11185000 -1.27470899 -0.966491 -0.255872 0.020615
0.03140500 0.14721000 -1.29156303 -0.876393 -0.481550 0.006670
0.04045100 0.13578799 -1.07769501 -0.916712 -0.399192 0.016904
0.05139300 0.08325800 -0.68171501 -0.999354 0.005083 0.035582
0.04947900 0.09526200 -0.69973803 -0.998948 -0.042355 0.017562
0.03382000 0.15357600 -1.01021302 -0.912990 -0.407932 0.006475
0.04493400 0.14375401 -0.72225201 -0.929631 -0.363654 0.059507
0.01269800 -0.04592000 -0.83518201 -0.804296 0.590766 -0.064059
0.04464400 0.14410600 -0.70122403 -0.933538 -0.354823 0.051063
0.05053500 0.10650500 -0.81716299 -0.985409 -0.169741 -0.012531
-0.04012100 -0.09280400 -0.70574403 -0.610191 0.791712 -0.029323
0.05035200 0.06511600 -0.59555101 -0.989714 0.128189 0.063517
0.04863300 0.05498200 -0.69381797 -0.987348 0.156378 0.026253
0.04713600 0.02572800 -0.46266600 -0.948787 0.314578 0.029057
0.05160100 0.10683300 -0.71146297 -0.992753 -0.119569 -0.012067
0.04745900 0.14613301 -0.59399903 -0.954508 -0.293597 0.052110
0.05379000 0.15812699 -0.39289200 -0.951164 -0.294377 0.092892
0.04085700 0.16053800 -0.60952300 -0.904505 -0.424944 0.035967
0.01053900 0.17927900 -1.14073801 -0.760666 -0.648597 0.026616
0.03497000 0.15125100 -0.89367098 -0.881304 -0.468837 0.059120
0.04423900 0.10369200 -1.35736597 -0.969785 -0.243934 0.003570
0.04045500 0.14338300 -0.74785501 -0.935686 -0.351365 0.032176
0.06322200 0.15872100 -0.33517599 -0.935828 -0.319250 0.149349
0.07301900 0.13699800 -0.26408899 -0.985612 -0.098919 0.137056
0.04982400 0.10722800 -0.70312500 -0.987304 -0.157923 -0.017042
0.04978900 0.10745900 -0.70648903 -0.987304 -0.157923 -0.017042
0.02586400 0.15117000 -1.34501898 -0.876858 -0.480598 -0.012048
0.05026500 0.03412200 -1.00192404 -0.992309 0.121122 -0.025558
0.04906500 0.10138000 -1.10697997 -0.987830 -0.155502 0.003356
0.05162500 0.06825400 -0.84207702 -0.997021 0.061571 -0.046448
0.05480300 0.04072700 -0.44744700 -0.966695 0.255285 0.018148
0.05242500 0.10192000 -0.71216297 -0.992753 -0.119569 -0.012067
0.05245300 0.10783800 -0.64933401 -0.989830 -0.141723 0.012275
0.05074800 0.09924300 -0.96888202 -0.989614 -0.141374 0.026013
0.05246100 0.08084900 -0.99664003 -0.997208 -0.074607 -0.003152
0.05110500 0.10613200 -0.85465503 -0.986526 -0.162714 0.017068
0.05124900 0.03095000 -1.22401798 -0.992658 0.120950 -0.001090
0.04820100 0.03729200 -0.88757002 -0.980825 0.194303 -0.015125
0.04955900 0.06228200 -0.66798699 -0.989745 0.137813 0.037585
0.04897600 0.10426700 -1.03559005 -0.982842 -0.183633 0.017324
0.05054700 0.10827000 -0.70452100 -0.987304 -0.157923 -0.017042
0.04996000 0.10980900 -0.88628203 -0.983281 -0.182004 0.005723
0.04915600 0.10789100 -0.79347998 -0.986688 -0.158101 0.038083
0.04211900 0.01584100 -0.50798899 -0.910953 0.411185 0.033053
0.06022300 0.15028700 -0.36222899 -0.943997 -0.306632 0.121849
0.05792000 0.13028701 -0.40606800 -0.982897 -0.155958 0.097927
0.06936800 0.11382700 -0.32404599 -0.992848 -0.018733 0.117908
0.07495300 0.14560001 -0.22533800 -0.986238 -0.074411 0.147640
0.10084900 0.09507600 0.01753100 -0.823713 0.563742 0.060754
0.10397200 0.10490900 -0.01674100 -0.905911 0.416746 0.075151
0.05942700 0.06754200 -0.44505799 -0.991808 0.127155 -0.012163
0.05757300 0.10726100 -0.55093902 -0.994173 -0.096640 0.047765
0.07409000 0.06101900 -0.28770801 -0.980338 0.191779 0.046456
0.05930400 0.01458800 -0.25483099 -0.882479 0.470030 -0.017409
0.06947100 0.05184900 -0.26975900 -0.965231 0.255319 0.056046
0.05541700 0.02896600 -0.32148999 -0.929696 0.362064 0.067638
0.05803700 0.10690200 -0.47422001 -0.999241 -0.037842 -0.009205
0.06310500 0.10307300 -0.49762499 -0.997887 -0.058325 0.028632
0.04911000 0.13977900 -0.57303500 -0.962952 -0.261246 0.066889
0.05177200 0.13425100 -0.52468801 -0.968952 -0.246752 0.015648
0.05478600 0.13731401 -0.50259399 -0.968235 -0.247858 0.032966
0.05231700 0.10227200 -0.61431402 -0.993655 -0.095436 0.059507
0.05923900 0.10134700 -0.44404501 -0.999632 -0.027126 0.001005
0.05155100 0.04477500 -0.48842201 -0.965957 0.258631 0.006015
0.05351100 0.07398000 -0.61799300 -0.995250 0.094630 0.022842
0.05037100 0.05702100 -0.65394300 -0.983205 0.178871 0.036242
0.16528399 0.15928701 0.13802101 -0.813130 0.540555 0.215916
0.19484399 0.17430300 0.25408500 -0.625129 0.780372 0.015247
0.17699800 0.17391001 0.16438200 -0.829895 0.516210 0.211661
0.18439201 0.16640800 0.26697001 -0.542816 0.834991 -0.090231
0.18112101 0.15914200 0.24092500 -0.605831 0.795241 0.023676
0.02225600 0.01348000 -0.04891300 -0.671289 0.730827 -0.123541
0.04560600 0.04233300 0.01788600 -0.685354 0.725584 -0.061782
0.05924800 0.08598600 0.24630199 -0.641936 0.605062 -0.470976
0.14604101 0.16397201 0.06727600 -0.871914 0.420145 0.251485
0.09619800 0.11478600 0.21385901 -0.625261 0.730267 -0.275242
0.12239600 0.16957501 -0.03314400 -0.951851 0.106345 0.287525
0.13484199 0.13748901 0.25571799 -0.362561 0.904220 -0.225691
0.06136900 0.09840600 0.25468501 -0.555944 0.626916 -0.545805
0.06357100 0.11213800 0.25482100 -0.495377 0.653226 -0.572623
0.14200599 0.15374900 0.29153299 -0.303316 0.924187 -0.232115
0.17943400 0.16553700 0.29987001 -0.465498 0.871167 -0.156139
0.14495701 0.15651301 0.32991299 -0.170605 0.901769 -0.397123
0.02730400 0.07125000 0.27526399 -0.577112 0.556803 -0.597421
0.12338200 0.13673000 0.01579900 -0.893101 0.422897 0.153390
0.13399200 0.13288200 0.09781700 -0.775042 0.629454 0.055666
0.11868500 0.12781000 0.22828500 -0.448519 0.868727 -0.210104
0.13968299 0.13485900 0.12835000 -0.735323 0.674886 0.061877
0.11570400 0.11035500 0.11660400 -0.719460 0.694216 -0.021037
0.17285500 0.15806900 0.27606699 -0.467856 0.877761 -0.103183
0.03731100 -0.01258000 -0.21514900 -0.778432 0.621876 -0.085526
0.03860100 0.00565600 -0.17467199 -0.799029 0.579334 -0.161010
0.09776400 0.08994000 -0.03710800 -0.911871 0.403615 0.074744
0.00449000 -0.08171200 -1.26840794 -0.668211 0.742299 -0.049867
-0.04585200 -0.10576000 -1.07101202 -0.343674 0.938347 -0.037328
-0.07043700 -0.11283800 -1.14591098 -0.125240 0.991947 -0.018841
-0.03480200 -0.10213700 -1.14898300 -0.473125 0.880946 0.009329
-0.05812400 -0.11094600 -1.10359800 -0.197890 0.980191 0.008101
-0.01117800 -0.09593700 -1.30594206 -0.528371 0.848925 -0.012225
-0.02495600 -0.09666200 -1.02821696 -0.555502 0.831185 -0.023433
-0.04771500 -0.10389600 -0.88620901 -0.397326 0.917604 -0.011648
0.00447500 -0.07250300 -1.05619204 -0.704089 0.709710 -0.023891
-0.02102800 -0.09174900 -1.07762504 -0.576293 0.817214 -0.006844
-0.04590900 -0.10458700 -1.01181901 -0.394905 0.917923 -0.038302
-0.05081300 -0.10484000 -0.85452503 -0.398462 0.916595 -0.032876
0.01342700 -0.05587600 -0.95742500 -0.827700 0.559709 -0.040478
-0.03074300 -0.09203600 -0.80562103 -0.559377 0.827090 -0.054951
-0.00505200 -0.06742500 -0.78657502 -0.747722 0.662914 -0.038164
-0.00285700 -0.07288900 -0.89474702 -0.681717 0.730107 -0.046966
-0.04603400 -0.10637700 -0.44481501 -0.446748 0.892121 0.067356
-0.03270700 -0.09471700 -0.35722899 -0.535186 0.835590 -0.123953
-0.05947800 -0.11388100 -0.36937001 -0.351786 0.933229 -0.073012
-0.04882100 -0.10287100 -0.39157301 -0.420452 0.907291 0.006509
-0.05102900 -0.10866200 -0.41374999 -0.404035 0.913412 0.049338
-0.03742800 -0.09409200 -0.39772001 -0.529873 0.848067 -0.004045
-0.02838700 -0.09099200 -0.37925899 -0.606834 0.792454 -0.061397
-0.07540200 -0.11217200 -0.66715097 -0.309246 0.950458 -0.031556
0.01185500 -0.05562500 -0.42175600 -0.751679 0.658250 0.041052
0.04124300 -0.01114400 -0.37950799 -0.880723 0.473204 -0.020108
-0.01912900 -0.08669500 -0.45023301 -0.634540 0.768127 0.085670
-0.03307900 -0.08503900 -0.63029701 -0.603682 0.797081 -0.015196
-0.05318200 -0.10227300 -0.76014602 -0.384469 0.922984 0.016829
-0.02590900 -0.07543400 -0.29797000 -0.586814 0.785994 -0.194583
0.00653800 -0.06092000 -0.44619700 -0.744266 0.662703 0.083020
-0.01984400 -0.08498100 -0.41865900 -0.657320 0.753032 0.029558
0.01807300 -0.03173300 -0.20077799 -0.700140 0.700140 -0.140028
-0.00249800 -0.05136700 -0.32118499 -0.703968 0.701004 -0.114117
-0.00924100 -0.04746300 -0.24696000 -0.606788 0.793492 -0.046676
0.01151200 -0.03529200 -0.28901300 -0.689844 0.723564 -0.023885
-0.01732100 -0.04648600 -0.14402400 -0.632735 0.757157 -0.162356
-0.01905700 -0.01502500 -0.02885000 -0.601712 0.784777 -0.148552
0.01154200 0.01037900 0.02421700 -0.577502 0.814716 -0.052243
0.03133800 -0.02677800 -0.23873100 -0.755705 0.653621 -0.041117
-0.00879500 -0.04386900 -0.20953099 -0.599434 0.795875 -0.085221
-0.03044000 -0.05799600 -0.18219300 -0.593128 0.796233 -0.119214
0.00596100 -0.04245100 -0.48798099 -0.802819 0.587180 0.103449
-0.01955900 -0.07929900 -0.66571099 -0.664001 0.744661 -0.067696
0.02551500 -0.04916700 -1.13766098 -0.818255 0.567150 -0.093803
0.00905200 -0.07196800 -1.13603699 -0.762011 0.644337 -0.064577
0.02522100 -0.01553500 -0.72692001 -0.897781 0.440346 -0.009201
-0.01362500 -0.08574800 -1.00367904 -0.562403 0.826246 -0.031939
0.00894000 -0.06535300 -0.99362898 -0.786172 0.614955 -0.061353
-0.00216900 -0.05243600 -0.68464601 -0.786305 0.617713 -0.012437
0.01403400 -0.05675700 -1.00894403 -0.799168 0.599727 -0.040731
0.00449500 -0.04816200 -0.73048502 -0.809262 0.587434 0.004108
0.03244600 -0.01746200 -0.95241398 -0.930106 0.366639 -0.021870
0.03737000 -0.00852800 -0.44285500 -0.905722 0.416659 0.077867
0.02940800 -0.00468500 -0.61276400 -0.915316 0.402635 0.009063
0.02259800 -0.03355900 -0.87021399 -0.863944 0.503176 -0.020344
0.02139500 -0.02802400 -0.67216498 -0.847284 0.530746 -0.020466
0.00707900 -0.03638200 -0.53813797 -0.777104 0.628684 0.029404
0.05198800 0.04350700 -1.06128299 -0.994639 0.101316 0.020699
0.02491900 -0.01926600 -0.77947998 -0.882186 0.470050 -0.028284
0.01506900 -0.03234400 -0.68835598 -0.848067 0.529873 -0.004045
0.02419200 -0.04616700 -1.03354597 -0.830209 0.556696 -0.029009
0.04008700 -0.01152200 -1.11653495 -0.944874 0.326732 -0.021446
0.01385100 -0.07028800 -1.24332404 -0.668719 0.743483 -0.006923
0.05049200 0.04991300 -0.96865100 -0.989620 0.143601 -0.005566
0.04170700 -0.00237700 -1.01821697 -0.953686 0.298578 -0.036535
0.03447300 0.00613200 -0.77315599 -0.929243 0.367798 -0.035090
0.03448500 -0.00254400 -0.55437201 -0.900111 0.434765 0.027921
0.05006100 0.04011100 -0.53359503 -0.962629 0.265940 0.051190
0.04952300 -0.00694100 -0.24715300 -0.830511 0.556866 -0.012314
0.02281700 -0.03100900 -0.44826299 -0.847896 0.522988 0.086927
0.03679100 -0.01439700 -0.35170999 -0.839653 0.542985 -0.012248
-0.00730200 -0.02733400 -0.11973900 -0.667816 0.725622 -0.165813
0.01675600 -0.00773100 -0.13766700 -0.656470 0.730266 -0.189100
0.02328500 -0.00128500 -0.10106500 -0.708163 0.690043 -0.149484
0.06405400 0.05304800 -0.05986300 -0.762100 0.646159 -0.041004
-0.00749200 -0.04243900 -0.16766600 -0.629565 0.757612 -0.172254
0.01276400 -0.02374100 -0.15849701 -0.642776 0.741427 -0.192679
0.02238600 0.02653900 0.17178100 -0.536172 0.839289 -0.090077
0.02928200 -0.02601200 -0.21490100 -0.746570 0.658910 -0.092043
0.05543600 0.04085300 -0.51258302 -0.966132 0.255921 0.033062
0.02814500 -0.01731000 -0.46826401 -0.878659 0.466832 0.100136
0.02470600 -0.03252100 -0.40362301 -0.803547 0.594653 0.026460
0.00774400 -0.04417600 -0.66278702 -0.798609 0.601387 -0.023611
-0.00552200 -0.07592400 -0.36788699 -0.703210 0.706122 -0.082988
0.04842000 0.05683500 -0.75251901 -0.985521 0.169369 -0.007957
0.03716100 0.00886600 -0.69237500 -0.924236 0.381328 -0.019390
0.03305000 -0.04286800 -1.24401498 -0.866115 0.498257 -0.039806
0.01910700 -0.07083000 -1.30267298 -0.741015 0.669626 -0.049972
0.03899900 -0.00014100 -0.98115802 -0.952907 0.302688 -0.018684
0.04862600 -0.00818700 -1.35154498 -0.971027 0.238894 0.005943
0.05199200 0.04631400 -1.15173995 -0.997192 0.071457 -0.022397
0.04933400 0.01843600 -1.10254896 -0.984148 0.177169 -0.008001
0.04338600 -0.01955700 -1.28082705 -0.942031 0.332101 -0.047812
0.05199800 0.03401300 -1.29958999 -0.998439 0.055065 -0.009351
0.05143800 0.06132900 -0.93927902 -0.996780 0.079615 0.009554
0.04400700 0.01101200 -0.84587097 -0.952091 0.303913 -0.034048
0.05392900 0.06603700 -0.87159902 -0.995963 0.088983 -0.011793
0.05778500 0.02980500 -0.22681800 -0.915229 0.389488 -0.103221
0.03255800 -0.00530700 -0.82568800 -0.919328 0.392124 -0.032786
0.03316400 0.00317000 -0.65169001 -0.911127 0.411519 -0.022351
0.08068000 0.06755500 -0.13751800 -0.915050 0.401245 0.041051
0.07796200 0.06571800 -0.11839500 -0.870897 0.489623 0.042516
0.05832200 0.06278000 -0.49833301 -0.992897 0.114522 0.032244
0.05591700 0.01109100 -0.28944001 -0.892345 0.448216 0.053132
0.06054700 0.03655900 -0.25733700 -0.926726 0.375561 -0.011536
0.04147100 0.02601500 -0.61066300 -0.966712 0.251271 0.048274
0.04351400 0.01854700 -0.14411600 -0.785885 0.595092 -0.168079
0.04689300 0.00809800 -0.41260600 -0.932031 0.359479 0.045752
0.05878000 0.01472800 -0.23891500 -0.895595 0.438855 -0.072913
0.03003400 -0.00300200 -0.73174101 -0.897781 0.440346 -0.009201
-0.04726800 0.05754300 0.43473899 -0.983012 0.134543 -0.124846
-0.01721500 -0.02483100 -0.06599100 -0.646693 0.741480 -0.178873
-0.03786600 0.00441600 0.19131200 -0.557429 0.823836 -0.102799
0.03094600 0.03141800 0.14550599 -0.544097 0.832742 -0.102469
0.06146900 0.07452400 0.18715900 -0.747743 0.644606 -0.159256
0.04823100 0.05441600 0.12850501 -0.681717 0.730107 -0.046966
0.00723200 0.00990200 0.09015200 -0.508355 0.853979 -0.110888
-0.00348200 0.01342500 0.14880501 -0.510738 0.855946 -0.080643
0.00474200 0.00802000 0.04560400 -0.542159 0.837883 -0.063369
0.04138100 0.03829800 0.18950599 -0.622001 0.771162 -0.135736
0.06069700 0.06616500 0.14656501 -0.695003 0.712635 -0.095508
0.02648300 0.02793200 0.05839700 -0.622596 0.782092 -0.026583
0.11312100 0.10894300 0.04449900 -0.849984 0.518561 0.092855
0.08217100 0.06963400 -0.07461400 -0.863502 0.503368 0.031375
-0.02485000 -0.00527000 0.03828600 -0.555097 0.826157 -0.096601
0.01264600 -0.00504000 -0.06357200 -0.672648 0.724042 -0.152669
-0.03468200 -0.00427500 0.11969800 -0.488383 0.867765 -0.092014
-0.06023700 -0.04319900 0.01162000 -0.608899 0.781594 -0.135476
-0.03476200 -0.02186800 0.00445400 -0.602543 0.787026 -0.132411
-0.07048700 -0.04714700 0.05234000 -0.606745 0.791218 -0.076384
-0.03230500 0.00777700 0.16250500 -0.494418 0.860546 -0.122523
-0.03344400 -0.00844600 0.09501400 -0.506949 0.852662 -0.126374
-0.01493800 -0.00000300 0.06666500 -0.536493 0.837276 -0.105563
-0.02695700 0.03219300 0.26405501 -0.645605 0.706481 -0.289962
-0.02309900 0.01444900 0.19325501 -0.438113 0.889069 -0.132718
-0.00133500 0.04079700 0.27006599 -0.556899 0.647753 -0.519885
0.00250200 0.02262800 0.21673700 -0.455791 0.858584 -0.234710
-0.00404700 0.03140900 0.24963400 -0.520036 0.780859 -0.346154
0.00705900 0.02544500 0.22974201 -0.499326 0.827057 -0.258166
0.02294000 0.03443300 0.21634600 -0.564946 0.794020 -0.224431
-0.04227000 0.07807000 0.40654600 -0.970509 -0.195122 -0.141559
-0.04732500 0.03515300 0.38625601 -0.962949 0.232615 -0.136450
-0.03612900 0.04430400 0.34629399 -0.918341 0.269592 -0.289775
0.08363100 0.15496400 0.33887601 0.070575 0.761920 -0.643815
-0.05178900 0.06634700 0.49571201 -0.991878 -0.046265 -0.118484
0.03053200 0.16463400 0.31093100 0.365459 0.377900 -0.850665
-0.04054600 0.10109700 0.35386199 -0.888982 -0.322312 -0.325310
-0.03547800 0.11070500 0.32362700 -0.633627 -0.243703 -0.734252
-0.01655500 0.06698200 0.30213100 -0.636606 0.333770 -0.695219
-0.02624800 0.06691600 0.31377900 -0.810309 0.094222 -0.578378
0.01747100 0.03186200 0.23512800 -0.558989 0.761965 -0.327017
0.00770800 0.03724600 0.25088301 -0.532900 0.734181 -0.420710
0.15101500 0.14261700 0.18736000 -0.657173 0.751669 0.055838
0.00614200 0.06545400 0.28660300 -0.621657 0.493619 -0.608180
0.05350800 0.10917000 0.26776901 -0.483614 0.553897 -0.677729
0.05093000 0.09979200 0.27164099 -0.530015 0.526650 -0.664623
0.06938200 0.09780800 0.23663500 -0.596504 0.679583 -0.427024
0.07560300 0.14845800 0.30980101 -0.004153 0.746103 -0.665817
0.10512500 0.11232800 0.17710400 -0.619570 0.768024 -0.162088
0.11104700 0.10080600 0.08067000 -0.783452 0.620291 0.037977
0.08251500 0.11617000 0.23793399 -0.514665 0.756476 -0.403563
-0.05497100 0.09822400 0.47257799 -0.935426 -0.341250 -0.092338
0.09301800 0.12616301 0.25255501 -0.369948 0.805557 -0.462835
0.05721500 0.13345300 0.28280401 -0.206215 0.714775 -0.668260
-0.17874999 0.15160300 1.12484097 -0.405957 -0.912397 -0.052252
0.03855900 0.08959000 0.27945101 -0.510385 0.480460 -0.713208
0.04632700 0.10767600 0.28326401 -0.392412 0.550033 -0.737209
0.04736200 0.04927900 0.10901500 -0.679060 0.732931 -0.041112
0.06257000 0.07343000 0.16447601 -0.717076 0.684142 -0.133235
-0.19764000 0.13091600 1.45616996 -0.357815 -0.932921 -0.040335
0.03619200 0.10584600 0.29170200 -0.432111 0.504403 -0.747568
0.01913400 0.10680300 0.29481399 -0.336078 0.391833 -0.856457
0.01639200 0.09096900 0.28978801 -0.468360 0.403535 -0.786002
-0.05047700 0.13169000 0.31030801 -0.197229 -0.336283 -0.920877
0.00522000 0.10250400 0.29648200 -0.454499 0.258621 -0.852377
-0.21602400 0.14588000 1.27330399 -0.065707 -0.994521 -0.081299
-0.05647300 0.10910800 0.45690900 -0.906554 -0.414308 -0.080674
-0.04149900 0.13809100 0.30439201 -0.115675 -0.296500 -0.948002
-0.00350800 0.13508999 0.30273399 -0.128464 0.065968 -0.989518
0.03509800 0.15361300 0.30507201 0.196154 0.551968 -0.810466
0.01401800 0.15285900 0.30214599 0.171502 0.263330 -0.949339
0.04492300 0.10651400 0.28922299 -0.392412 0.550033 -0.737209
0.05285300 0.08533500 0.26042399 -0.622032 0.581574 -0.524260
0.04197700 0.05668400 0.23280001 -0.648267 0.671244 -0.359419
0.08886200 0.08225200 -0.00720300 -0.821545 0.569401 0.029093
0.08290300 0.08003100 -0.15397900 -0.951522 0.281883 0.123076
0.08218800 0.07808700 0.05874900 -0.707106 0.707106 -0.001384
0.09070100 0.09282800 -0.11685700 -0.955920 0.270691 0.113769
0.08474200 0.10818900 -0.15519001 -0.980932 0.128587 0.145731
0.09668300 0.15760300 -0.12512800 -0.978611 0.041719 0.201444
0.11572100 0.11026400 0.09875400 -0.753843 0.657019 0.006916
0.10578000 0.13276200 -0.06254000 -0.947750 0.256994 0.189006
0.10159300 0.11169500 -0.06467100 -0.932276 0.335400 0.135529
0.09454700 0.14495000 -0.13721199 -0.969843 0.107479 0.218752
0.10478400 0.13426700 -0.07831500 -0.953961 0.230081 0.192407
-0.06205400 0.15286300 0.29627499 -0.051898 -0.548438 -0.834579
-0.00043800 0.16359900 0.29835200 0.155847 0.003364 -0.987776
0.10353400 0.16163900 0.34662199 0.085105 0.809219 -0.581311
-0.11048900 0.13885400 0.66242099 -0.690708 -0.687575 -0.223971
-0.17404000 0.16921601 0.64884800 -0.406497 -0.804960 -0.432204
-0.17313600 0.15193000 0.84364498 -0.407252 -0.911978 -0.049404
-0.31136999 -0.02973900 1.02129900 0.733081 0.679817 0.021025
-0.27708399 -0.08420100 1.57691097 0.358234 0.929798 0.084527
-0.14020699 -0.02941100 1.48737800 -0.869716 0.493332 -0.014787
-0.32530001 0.11479400 1.20644999 0.784873 -0.614937 0.076327
-0.33474800 0.02008000 0.85092998 0.864565 0.116136 -0.488917
-0.22586600 -0.08334000 1.46051300 -0.054422 0.997737 0.039483
-0.33645701 0.08849600 1.19215298 0.896775 -0.425086 0.122865
-0.41710100 0.01326900 0.69182301 0.985484 0.019503 -0.168645
-0.34464899 0.04502900 1.03181303 0.998190 0.030632 0.051758
-0.35435101 0.01570500 1.28324699 0.990459 0.134395 -0.030493
-0.22927000 -0.09194800 1.58078802 -0.061445 0.997131 0.044197
-0.32442999 0.09228700 1.37437403 0.816011 -0.568735 -0.103274
-0.12476100 0.01548100 1.43099904 -0.996922 0.069903 -0.035489
-0.10705900 0.00742200 0.88265097 -0.911077 0.407764 -0.060559
-0.33576700 -0.03091600 0.83905202 0.683033 0.143241 -0.716204
-0.33739001 -0.12559800 0.80630898 -0.230401 0.405803 -0.884443
-0.15344100 -0.05365900 1.57702303 -0.686316 0.721437 0.092192
-0.33712399 -0.03036300 1.46991599 0.891076 0.451641 0.044757
-0.32369900 0.09837100 1.62089097 0.743692 -0.668346 0.015348
-0.34355399 0.05262400 1.47444105 0.961357 -0.274848 -0.015880
-0.23279700 0.16370000 0.99009103 -0.013641 -0.997856 -0.064006
-0.25999400 0.15004100 1.23334801 0.204753 -0.970349 -0.128447
-0.34216100 0.08741600 1.23605597 0.869655 -0.485027 0.091915
-0.20818700 -0.07316800 1.33291698 -0.218477 0.975386 0.029847
-0.33173499 0.08847200 1.63110197 0.784823 -0.617960 0.046665
-0.12757200 0.09778300 1.21548796 -0.869426 -0.484899 -0.094718
-0.25240800 -0.13118599 0.52682298 -0.323520 0.931683 0.165231
-0.07527700 -0.00422800 0.45333800 -0.828419 0.552758 -0.090451
-0.34823900 0.06940200 1.30964696 0.943228 -0.309937 -0.119413
-0.23722599 0.13489699 1.58072495 0.062169 -0.997865 -0.020021
-0.35222799 0.00793700 1.55017102 0.989233 0.126706 0.073233
-0.34238699 -0.04356800 1.64972794 0.736673 0.669034 0.098517
-0.34535900 -0.03230700 1.63542402 0.869433 0.482386 0.106723
-0.31160301 0.11047700 1.64440405 0.586815 -0.806693 -0.069961
-0.30493999 0.11566700 1.62672901 0.592720 -0.803086 -0.061120
-0.30006701 0.11918400 1.64110196 0.586930 -0.806851 -0.067119
-0.14915401 0.08011000 1.60302901 -0.857822 -0.508496 -0.074654
-0.12632801 -0.00184800 1.35730505 -0.969042 0.245587 -0.025406
-0.34853801 -0.00690000 1.27311206 0.914870 0.403581 -0.011679
-0.34774500 0.05405700 1.62658894 0.945990 -0.316198 -0.071567
-0.32329801 0.11391600 1.28691900 0.719814 -0.684194 -0.117248
-0.34130800 -0.01468800 1.23118401 0.883153 0.461807 0.082316
-0.34157500 0.09209900 1.26396501 0.856998 -0.515275 -0.006727
-0.34822699 0.04634400 1.56209195 0.974395 -0.224313 -0.015429
-0.30801001 0.11155500 1.43378198 0.759099 -0.650855 -0.012490
-0.34187999 0.09313900 1.29226005 0.839172 -0.532968 -0.108327
-0.34859401 0.08852400 1.28148401 0.868489 -0.489665 -0.077168
-0.22087400 -0.06518500 1.10610294 0.015072 0.999801 0.013063
-0.33984101 0.06090500 1.39875805 0.955657 -0.288860 -0.057263
-0.32829499 0.08744300 1.55480003 0.822215 -0.568802 0.020659
-0.34418300 0.05422800 1.48803198 0.952227 -0.304962 0.016182
-0.13121501 0.03368400 1.50007200 -0.997986 -0.049846 -0.039241
-0.33267501 0.10097500 1.30236101 0.786407 -0.596220 -0.161508
-0.32185200 0.09065800 1.42380500 0.795241 -0.605831 -0.023676
-0.33201301 0.07619900 1.50308800 0.862638 -0.505777 -0.006708
-0.32480001 0.11031900 1.18308103 0.821882 -0.564597 0.075756
-0.34873301 0.05468800 1.32190597 0.970370 -0.197644 -0.138989
-0.30307901 0.13563800 1.11853099 0.631566 -0.775292 0.006910
-0.40953001 -0.06853400 0.81828398 0.247818 -0.547070 -0.799563
-0.32364500 0.11514700 1.10603905 0.794268 -0.606557 -0.035021
-0.30146301 -0.04347200 1.08319294 0.649767 0.754897 0.089069
-0.35029301 0.00909900 1.26983202 0.983919 0.178584 0.003412
-0.35373700 0.08441100 1.26792300 0.912078 -0.409850 0.011710
-0.36745301 0.06574200 1.27176297 0.972132 -0.232492 -0.030116
-0.34863201 0.05693000 1.15419197 0.984091 -0.154626 0.087501
-0.35070401 0.07351900 1.21759701 0.940027 -0.306975 0.148713
-0.34873000 0.02878000 1.19502699 0.991218 0.100158 0.086343
-0.33934599 0.06444000 1.52376401 0.929088 -0.369856 -0.001271
-0.32929999 0.00179900 0.96141201 0.906275 0.422227 0.019730
-0.34595001 0.06807200 1.12322795 0.984667 -0.172403 0.026613
-0.34866199 0.04896200 1.11768198 0.997891 -0.041446 0.049948
-0.33955801 0.01046700 1.11177599 0.938340 0.345034 0.021644
-0.34091699 0.00183000 1.18249595 0.933381 0.350184 0.078558
-0.34525400 0.03171100 1.09369397 0.987870 0.147080 0.049799
-0.34158701 0.01360500 1.15781200 0.972197 0.217842 0.085892
-0.34639901 0.02767900 1.15214097 0.991400 0.123218 0.044087
-0.33850899 0.09180600 1.05291796 0.955321 -0.295548 0.003679
-0.34755901 -0.00433500 1.28877795 0.929881 0.360512 -0.073167
-0.34086001 0.02490800 1.02266800 0.963511 0.264128 0.043401
-0.17304499 -0.05120700 1.02661097 -0.379975 0.924989 0.003838
-0.32969800 0.00190500 0.91803300 0.934833 0.336865 -0.112288
-0.35267299 0.04507500 1.23414505 0.988242 -0.109282 0.106932
-0.35103801 0.08368300 1.25614500 0.925138 -0.376126 0.051470
-0.34826401 0.03088000 1.17341602 0.993956 0.081987 0.073002
-0.34430501 0.06733300 1.33121204 0.927728 -0.319567 -0.192866
-0.35031399 0.02865600 1.36086094 0.997518 0.015834 -0.068612
-0.34412000 -0.00092600 1.21034396 0.940016 0.321408 0.114308
-0.34919500 0.00300900 1.23618901 0.950412 0.293142 0.103849
-0.34745100 0.04196500 1.37340200 0.959780 -0.255855 -0.115589
-0.36633199 0.05490700 1.28031397 0.974783 -0.218632 -0.044693
-0.36629501 0.05646200 1.27046096 0.981448 -0.191698 -0.003444
-0.31768501 -0.02202600 0.96161801 0.768473 0.638749 -0.038071
-0.33092901 0.08024700 1.36981499 0.871094 -0.472384 -0.134348
-0.36691400 0.06513700 1.28583705 0.966617 -0.248202 -0.063610
-0.12099600 -0.00789800 1.00966096 -0.835081 0.548847 -0.037516
-0.17519100 -0.05421800 1.10681498 -0.436821 0.899023 0.030724
-0.30088300 -0.04027200 0.96159703 0.581406 0.813416 -0.017953
-0.27025199 -0.07040400 1.26980996 0.276110 0.959450 0.056735
-0.21590500 -0.09041600 1.55183101 -0.219642 0.974432 0.047326
-0.18388499 -0.05851900 1.07873094 -0.394539 0.918878 0.001285
-0.34767100 0.00432600 1.42302895 0.980117 0.197425 0.019859
-0.33331701 -0.02708500 1.24877501 0.819661 0.571954 0.032007
-0.32206699 -0.03971900 1.33840895 0.772122 0.634793 -0.029428
-0.31736001 -0.04201600 1.19315004 0.744904 0.664837 0.055761
-0.33053699 -0.05349000 1.61505795 0.709927 0.701287 0.064801
-0.24292099 -0.09343500 1.60842001 0.064140 0.997847 0.013669
-0.26793799 -0.08869700 1.60661805 0.307858 0.949336 0.063117
-0.14858501 -0.04177500 1.37591898 -0.680964 0.731719 0.029607
-0.31601101 -0.06248300 1.56106305 0.660629 0.747364 0.070833
-0.31849501 -0.06462100 1.62039399 0.604782 0.795618 0.035080
-0.33849201 -0.04125600 1.60638499 0.836272 0.541790 0.084342
-0.22751300 -0.09492200 1.65234995 -0.122429 0.991785 -0.037066
-0.31670099 -0.05788300 1.50265300 0.697242 0.716726 0.012525
-0.30702099 -0.06525700 1.49455094 0.645634 0.763276 0.023809
-0.13402000 0.02443300 1.62622404 -0.993961 -0.106771 -0.025317
-0.18375701 -0.05715100 1.20236599 -0.415916 0.909243 0.017057
-0.13713799 0.07229700 1.48105001 -0.935898 -0.342142 -0.083871
-0.13235800 0.06908200 1.44842803 -0.933914 -0.349387 -0.075723
-0.23155101 -0.06729300 1.04854596 0.075860 0.996866 0.022437
-0.16547599 -0.07374200 1.62861300 -0.572821 0.813550 0.100062
-0.13639000 -0.02567900 1.57476795 -0.906319 0.422247 0.017100
-0.30102900 -0.06560200 1.42915595 0.523315 0.850907 0.045807
-0.18060499 -0.06819100 1.45035303 -0.511727 0.856617 0.065894
-0.24007300 -0.09212100 1.55835795 0.111618 0.990756 0.077097
-0.24534699 -0.07760000 1.34161401 0.101730 0.994811 0.001071
-0.14656700 -0.04046800 1.45853603 -0.746399 0.664563 0.035274
-0.19067501 -0.06057000 0.96628398 -0.246666 0.968254 -0.040497
-0.28633001 -0.06345400 1.22977996 0.430740 0.902314 0.017124
-0.29459199 -0.06392600 1.24905705 0.465759 0.884268 0.033751
-0.18486699 -0.06536500 1.35387802 -0.381265 0.923684 0.037996
-0.26225400 -0.05695400 1.02549899 0.338286 0.939685 0.050549
-0.20494300 -0.10153000 0.50350302 -0.453104 0.888194 0.076210
-0.20468999 -0.06597400 1.16957998 -0.202367 0.978307 0.044305
-0.19625700 -0.06140000 1.12931395 -0.217001 0.975911 -0.022530
-0.30516601 -0.03892000 0.97768402 0.570092 0.821320 0.020706
-0.13881600 -0.02967100 0.88437200 -0.645960 0.759185 -0.079838
-0.26172400 -0.05627100 0.99042398 0.297888 0.953997 0.033937
-0.19133700 -0.06066200 0.93592799 -0.280326 0.959904 -0.001214
-0.23879801 -0.06641700 0.93917602 0.152870 0.983425 -0.097500
-0.25835899 -0.06973900 1.19402099 0.162320 0.984584 0.065165
-0.25130299 -0.06389000 0.96806097 0.253603 0.967088 -0.020628
-0.25272101 -0.05749200 1.00826597 0.189655 0.981256 0.034161
-0.29058900 -0.05131800 1.03529096 0.480891 0.875468 0.047952
-0.13108400 0.01365600 1.52715194 -0.997801 0.045790 -0.047920
-0.16734000 -0.06497500 1.50720000 -0.647903 0.759462 0.058640
-0.15607700 -0.04880500 1.32459497 -0.674516 0.738228 -0.006925
-0.34548101 0.02493300 1.06929398 0.964101 0.257680 0.064106
-0.33385500 -0.00382900 1.08475804 0.872113 0.486344 0.053732
-0.13015699 -0.01811700 1.29910505 -0.839562 0.542761 0.023359
-0.14285900 -0.03822900 1.58949006 -0.859618 0.496764 0.119511
-0.13324200 0.07885200 1.40560997 -0.862868 -0.498514 -0.083321
-0.18131401 -0.07436900 1.48271894 -0.530796 0.842693 0.090135
-0.25175101 -0.06668400 1.10933006 0.151236 0.988152 0.026154
-0.12021100 0.01666000 1.32555604 -0.985160 0.166719 -0.040805
-0.11545200 0.08786600 1.12090397 -0.952475 -0.299641 -0.054828
-0.12393000 -0.00298800 1.15744102 -0.932685 0.360672 0.003797
-0.10608300 0.01521900 0.98396403 -0.936019 0.333617 -0.112106
-0.09641900 0.15549301 0.56480002 -0.864284 -0.476897 -0.159944
-0.12101900 -0.00263100 1.18997598 -0.925465 0.378658 -0.011552
-0.10778500 0.06585700 1.04597497 -0.983092 -0.182821 -0.010348
-0.08852000 0.04582300 0.78410500 -0.997420 0.056781 -0.043925
-0.11413400 0.08608300 1.08799195 -0.964441 -0.258266 -0.056145
-0.11583600 0.01638500 1.20667005 -0.986194 0.164934 0.014787
-0.09404000 0.02592800 0.82142502 -0.962167 0.254955 -0.096089
-0.09387300 0.01955100 0.80016702 -0.911677 0.406831 -0.057735
-0.11872600 0.11110900 1.01956999 -0.857430 -0.514458 -0.012153
-0.13082600 0.10920900 1.17750704 -0.784534 -0.619516 -0.026571
-0.26388299 -0.07929800 0.20671301 0.458895 0.882491 0.103075
-0.11552800 0.10966400 0.97508901 -0.874622 -0.484714 -0.009347
-0.16580600 0.14544100 1.03311205 -0.383538 -0.922848 -0.035343
-0.21004800 0.14710701 1.24972701 -0.163217 -0.985174 -0.052840
-0.29916400 0.11896200 1.50286806 0.605505 -0.794638 -0.043754
-0.26576000 0.13532799 1.47710800 0.278733 -0.960349 -0.006086
-0.28319699 0.12848000 1.41046000 0.491965 -0.870606 0.004000
-0.13745099 -0.02609100 1.36012697 -0.821210 0.570625 -0.001362
-0.12723400 0.05108900 1.39602995 -0.985319 -0.166353 -0.038389
-0.13529401 0.06888300 1.51020098 -0.934156 -0.346132 -0.086867
-0.15366200 0.08117200 1.66658998 -0.822064 -0.542532 -0.172829
-0.13366500 -0.01125600 1.54461896 -0.970797 0.236928 0.037665
-0.13107599 0.05023700 1.49198794 -0.974713 -0.204355 -0.090412
-0.12892500 0.01212400 1.48749304 -0.995158 0.084858 -0.049593
-0.17165899 0.11600000 1.50228596 -0.676912 -0.734157 -0.052951
-0.18020400 -0.07968400 1.59657502 -0.550613 0.829514 0.093446
-0.30648199 0.11381500 1.54725301 0.652485 -0.757770 0.006927
