3.82819605 1.53817296 -0.06287300 -0.165933 0.686567 0.707879
3.78875899 1.52587795 -0.10084600 -0.991259 0.123483 0.046448
3.80617189 1.48678601 -0.08179100 -0.675746 -0.558370 -0.481238
3.78828311 1.49594498 -0.07632200 -0.822775 -0.330058 -0.462712
3.79415798 1.53824103 -0.10629800 -0.861852 0.473203 0.182457
3.84087396 1.58030701 -0.09621100 -0.537774 0.412787 0.735123
3.79604602 1.52890801 -0.07892900 -0.836462 0.524460 0.158972
3.81364894 1.57441998 -0.11837800 -0.760361 0.239866 0.603585
3.85251307 1.56426597 -0.08438800 -0.344077 0.767309 0.541155
3.81117201 1.55518699 -0.11368900 -0.632019 0.681267 0.369362
3.81999302 1.55302095 -0.10432200 -0.663844 0.701868 0.258249
3.80173206 1.54050803 -0.08190300 -0.738339 0.635315 0.226341
3.82811403 1.56160295 -0.08264100 -0.470515 0.773338 0.424929
3.82574892 1.56250894 -0.08728200 -0.560865 0.728631 0.393099
3.80631995 1.54529297 -0.09253000 -0.632735 0.757157 0.162356
3.82928610 1.53054905 -0.05588300 -0.182704 0.735422 0.652514
3.78167391 1.47512496 -0.05555800 -0.683963 -0.486634 -0.543491
3.89814806 1.58436799 -0.05138700 -0.897704 0.371717 0.236547
3.90443110 1.57947695 -0.05325600 -0.880643 0.439591 0.176713
3.90047312 1.57995903 -0.04742200 -0.784319 0.553915 0.279325
3.79398704 1.45271897 -0.02830200 -0.519544 -0.654053 -0.549808
3.80283189 1.52162004 -0.04364200 -0.396681 0.716000 0.574446
3.80181599 1.50514102 -0.02598000 -0.369362 0.707533 0.602470
3.79200101 1.48140895 -0.00920800 -0.398682 0.646824 0.650132
3.82130098 1.50242198 -0.00927000 -0.652613 0.652613 0.384959
3.82379699 1.49706101 -0.00436500 -0.734147 0.546915 0.402385
3.82803297 1.51256001 -0.04046000 -0.347584 0.814205 0.465033
3.82874799 1.51175797 -0.03356100 -0.547227 0.794969 0.261854
3.83098412 1.51244104 -0.02827500 -0.663215 0.732709 0.152585
3.78310609 1.48500097 -0.06142500 -0.892513 -0.222025 -0.392588
3.83849311 1.56370199 -0.07213400 -0.459138 0.692881 0.555975
3.83587289 1.52399194 -0.00122700 -0.861261 0.507505 0.025851
3.82846999 1.50635600 -0.00426700 -0.829280 0.520006 0.204667
3.81554008 1.48665202 -0.00718800 -0.548171 0.554918 0.625759
4.06405020 1.55681801 -0.06636900 0.140706 0.966869 0.212995
3.81101799 1.50518203 -0.02353400 -0.356380 0.782100 0.511187
3.83046603 1.50623298 -0.00190300 -0.854207 0.474560 0.212422
3.84641290 1.53957200 -0.00495900 -0.789545 0.612844 -0.032255
3.83825302 1.53308105 -0.00221200 -0.844099 0.536172 -0.004052
3.87574291 1.56213903 -0.00313800 -0.494264 0.828937 -0.261851
3.85771489 1.54873502 -0.01365000 -0.652709 0.752003 -0.091993
4.05586290 1.56535900 -0.03436400 0.255365 0.946351 -0.198010
3.82516789 1.51304996 -0.03796200 -0.293920 0.835105 0.464984
3.88023710 1.57166600 -0.05768700 -0.512508 0.848340 0.132872
3.84077096 1.53935504 -0.05947800 -0.568076 0.628760 0.530990
3.82836699 1.56185699 -0.07840000 -0.464218 0.741758 0.484042
3.84998488 1.54925501 -0.05961100 -0.577291 0.587448 0.567133
3.82961011 1.55857301 -0.07739600 -0.433168 0.711989 0.552663
4.16733789 1.50761199 -0.10452400 0.563380 0.207238 -0.799785
3.88378096 1.56601596 -0.03445400 -0.560744 0.725185 0.399592
4.14776421 1.51814497 -0.04634800 0.927083 0.142309 0.346793
4.07935905 1.55876899 -0.03024500 0.183441 0.954695 -0.234322
4.12588596 1.56357396 -0.02786800 0.958945 0.160045 -0.234115
4.12439823 1.55839002 -0.02826000 0.868517 0.165502 -0.467212
4.13056707 1.56642401 -0.03818800 0.967165 0.251291 0.038000
4.11651993 1.54933703 -0.07911700 0.286191 0.956910 0.049169
4.05766916 1.56897604 -0.01978300 0.255384 0.925947 -0.278212
3.90297890 1.57480395 -0.02466100 -0.662266 0.741915 0.104724
4.13851786 1.56430602 -0.01288600 0.941215 0.125226 -0.313738
4.15706921 1.51231802 -0.07685000 0.510482 0.352667 0.784241
4.15372896 1.50934196 -0.07523700 0.659173 0.605772 0.445568
3.85682893 1.54837000 -0.00690500 -0.706122 0.703210 -0.082988
4.14144516 1.51258194 -0.07887300 0.716898 0.517298 -0.467398
4.14893103 1.52117896 -0.07689500 0.428449 0.726213 -0.537629
4.13991213 1.51757300 -0.08013100 0.479387 0.699872 -0.529497
3.85736299 1.55573905 -0.05954500 -0.545600 0.726917 0.417029
3.86099195 1.56285703 -0.07672100 -0.393794 0.814692 0.425680
4.15628099 1.38493502 -0.06212100 0.907375 -0.418275 -0.041427
3.89838099 1.58441305 -0.04031200 -0.765397 0.504281 0.399834
3.89135003 1.58816600 -0.04335500 -0.792667 0.424585 0.437500
3.89156604 1.58608401 -0.04807000 -0.833928 0.476752 0.277976
4.11515093 1.56911004 -0.04635900 -0.543077 0.831360 -0.117934
4.12834215 1.57584298 -0.01909100 0.932355 -0.361525 -0.003806
4.12360811 1.56058896 -0.07558000 0.869268 0.207252 -0.448799
4.17018700 1.44548094 -0.10139800 0.929939 -0.281671 0.236377
4.16906023 1.43829298 -0.10174600 0.961853 -0.190792 0.196055
4.16714907 1.50358105 -0.04863400 0.773274 0.145646 0.617118
4.15784502 1.51012194 -0.04633100 0.819063 0.143669 0.555423
4.15945721 1.51039100 -0.04812800 0.884841 0.182818 0.428526
4.15359688 1.51154697 -0.04792800 0.957663 0.062318 0.281067
4.16491795 1.52756202 -0.08912700 0.322665 0.935042 0.146916
4.16157389 1.52101302 -0.08944800 -0.038389 0.985319 0.166353
4.15800905 1.51209402 -0.07835900 0.420726 0.600325 0.680147
4.14747381 1.52511299 -0.04847600 0.965622 0.103323 0.238535
4.14808702 1.51610506 -0.05356400 0.983225 0.139422 0.117599
4.14374018 1.54137599 -0.06906000 0.592293 0.481552 -0.645985
4.19205093 1.46467102 -0.04009400 -0.612794 0.261269 0.745803
4.19664288 1.46531105 -0.03914600 -0.220594 0.193855 0.955907
4.15078402 1.53608894 0.00376600 0.906287 0.359314 -0.222571
4.13760424 1.56701601 -0.01456100 0.964032 0.045906 -0.261790
4.13630581 1.57081997 -0.01390200 0.960982 -0.008526 -0.276480
4.14943981 1.54732704 -0.05476100 0.834433 0.452441 -0.314673
4.05029678 1.56305397 -0.05093600 0.211710 0.965034 -0.154561
4.17172003 1.53243399 -0.10389200 0.630345 0.178572 -0.755498
4.14278316 1.52492595 -0.03668300 0.944748 0.052844 0.323509
4.13420105 1.56430602 -0.04156600 0.905156 0.416179 0.086532
4.14208412 1.55753398 -0.04331800 0.833153 0.494348 0.247944
4.14183712 1.56794298 -0.04580300 0.840334 0.532930 -0.099116
4.11552477 1.55968797 -0.06378800 -0.290874 0.931640 -0.217804
4.12060213 1.56700397 -0.05793800 -0.251563 0.934576 -0.251563
4.08372402 1.56190300 -0.06948500 -0.055191 0.948513 0.311893
4.08050013 1.56286204 -0.07022000 -0.034884 0.934103 0.355295
4.12892914 1.56952405 -0.05266300 0.226342 0.867892 -0.442190
4.14375877 1.51766706 -0.02167100 0.992897 0.114522 -0.032244
4.12235880 1.57416606 -0.01933400 0.775564 -0.613551 0.148512
4.11730909 1.57478702 -0.01674700 0.662813 -0.710044 0.237731
4.15142679 1.51692104 -0.07037100 0.908131 0.414259 0.060722
4.12481308 1.56979597 -0.05362300 0.153954 0.860675 -0.485321
4.12875414 1.57122505 -0.05743100 0.469149 0.752285 -0.462565
4.12543583 1.57122803 -0.06093200 0.130789 0.904272 -0.406430
4.11819601 1.56399906 -0.06800200 -0.319512 0.942627 -0.096782
4.14159298 1.59193301 -0.01826700 0.975848 -0.212141 -0.052126
4.14093399 1.53715503 -0.02133600 0.908864 0.388705 -0.151242
4.13060093 1.56809998 -0.05614800 0.467999 0.711158 -0.524625
4.04090023 1.56338596 -0.06546500 0.229594 0.967848 -0.102747
4.09475422 1.56320798 -0.07521600 -0.082906 0.973835 0.211596
4.06965494 1.55512404 -0.07296100 -0.057605 0.996676 -0.057605
4.07899904 1.56855202 -0.07604600 -0.247873 0.968520 -0.022974
4.07652617 1.55762100 -0.07642300 -0.171576 0.985139 -0.007954
4.14816093 1.50723004 -0.10307800 -0.015588 0.998685 -0.048843
4.09444284 1.56244898 -0.07925300 -0.044273 0.991041 0.126009
4.08789492 1.55611503 -0.08346500 -0.148938 0.988815 -0.007839
4.17421818 1.45517194 -0.06442000 0.986875 -0.026363 -0.159321
4.11025095 1.56483102 -0.08533900 -0.322089 0.910886 0.257963
4.10687017 1.56634998 -0.10918800 -0.500539 0.848093 0.173777
3.85058403 1.55681002 -0.06381900 -0.574835 0.661982 0.480984
4.11595011 1.56623697 -0.08940800 -0.617542 0.754428 0.222440
4.08413076 1.56419599 -0.07928400 -0.052009 0.994813 0.087420
4.17143202 1.52922702 -0.09786800 0.685133 -0.064907 -0.725520
4.18529606 1.40377295 -0.02547300 0.814766 -0.422530 0.397019
4.14595079 1.50692904 -0.09273400 0.133516 0.990711 -0.025806
4.18500900 1.49091601 -0.09194000 0.542419 -0.072228 0.836997
4.19079399 1.41785300 -0.03254900 0.960159 -0.151051 0.235114
4.14023113 1.50927198 -0.08438100 0.472439 0.867357 -0.156505
4.14109516 1.50865102 -0.09599000 0.386100 0.920496 -0.060119
4.14324903 1.52996194 -0.07320400 0.624376 0.460331 -0.631071
4.13379192 1.46359897 -0.04125700 0.566432 0.217621 0.794856
4.18114185 1.50654697 -0.08392800 0.460538 0.460538 0.758822
4.14963818 1.51420605 -0.04934700 0.979076 0.076623 0.188518
4.15035582 1.51387501 -0.04692800 0.888825 0.213731 0.405351
4.17542410 1.50603199 -0.08058600 0.506129 0.388954 0.769771
4.15820980 1.51404202 -0.09225600 -0.105393 0.982457 0.153850
4.16393995 1.52193701 -0.09478300 -0.018091 0.997136 0.073428
4.16553688 1.50520205 -0.05016400 0.867464 0.203847 0.453819
4.12999105 1.56174302 -0.06165400 0.573205 0.647167 -0.502605
4.13292599 1.55358505 -0.06192800 0.595724 0.534970 -0.599099
4.15602207 1.40850794 -0.01998400 0.319705 0.230818 0.918973
4.13049078 1.54408002 -0.06654100 0.487116 0.431352 -0.759377
4.15879679 1.51755905 -0.07621000 0.602356 0.043731 0.797029
4.17443085 1.47210002 -0.11189900 0.785306 0.241993 -0.569854
4.17860079 1.47184706 -0.11543000 0.720074 0.290275 -0.630265
4.17591286 1.47381997 -0.11611100 0.717142 0.311030 -0.623672
4.18229818 1.49562705 -0.08662300 0.631551 0.009674 0.775274
4.17938900 1.49024606 -0.08910600 0.748829 0.009725 0.662692
4.18172121 1.50545895 -0.10014700 -0.119946 -0.108070 0.986881
4.18986416 1.50434899 -0.10172000 -0.091444 -0.221721 0.970813
4.19660902 1.47807801 -0.09413000 0.397512 -0.209757 0.893301
4.20402288 1.47803497 -0.09927000 0.257882 -0.138859 0.956146
4.16860008 1.40756404 -0.05093600 0.786622 -0.452510 -0.420072
4.17217922 1.40172803 -0.04932800 0.721913 -0.594804 -0.353623
4.17345190 1.43967497 -0.11434400 0.978191 -0.206494 -0.022419
4.14656019 1.50086606 -0.04226900 0.635799 -0.175340 0.751676
4.15011597 1.49970901 -0.04242600 0.659545 -0.219848 0.718795
4.15201521 1.50281596 -0.05128900 0.974711 0.020232 0.222553
4.17241096 1.51875496 -0.09743600 0.230189 0.949360 0.213844
4.17480993 1.51014400 -0.10101200 0.589149 0.485083 -0.646218
4.18286800 1.45458806 -0.11770500 0.951717 0.060203 -0.301014
4.18532085 1.45814705 -0.11826300 0.933722 0.078364 -0.349316
4.15216923 1.50879705 -0.08696100 0.151765 0.982222 0.110485
4.15009117 1.50703800 -0.08142500 0.480840 0.785210 0.390177
4.18452692 1.50960803 -0.09027000 0.492601 0.453061 0.743021
4.17947912 1.51006198 -0.09432500 0.413823 0.669761 0.616579
4.17421389 1.46049702 -0.12210300 0.869771 0.365335 -0.331705
4.17822790 1.46183598 -0.11332300 0.822519 0.252487 -0.509621
4.19391680 1.51216102 -0.09151700 0.497195 0.493869 0.713366
4.19000101 1.51017106 -0.09045800 0.504211 0.406306 0.762028
4.19879913 1.48188198 -0.10229500 0.052650 -0.099698 0.993624
4.19466782 1.49741697 -0.09464500 0.339088 -0.039969 0.939905
4.19445801 1.50835502 -0.09095000 0.438686 0.173434 0.881745
4.16441393 1.44389796 -0.09537000 0.971456 -0.184615 0.148965
4.16742992 1.47289300 -0.05069700 0.603636 0.795894 0.046651
4.18093300 1.45657098 -0.11391400 0.963597 -0.095976 -0.249537
4.17701387 1.41227198 -0.07060200 0.989226 -0.122342 -0.080396
4.15605307 1.37697303 -0.05692900 0.974833 -0.008251 -0.222785
4.17458820 1.43771195 -0.07336500 0.952855 0.100644 -0.286249
4.16972494 1.44266903 -0.07564700 0.956196 0.013572 -0.292411
4.16503382 1.42629397 -0.11563400 0.960027 -0.242299 -0.140140
4.17133093 1.45715797 -0.07838100 0.988350 -0.146124 0.042572
4.17959881 1.46545100 -0.07545700 0.960897 0.020862 0.276120
4.16594505 1.42983305 -0.11446900 0.974033 -0.223291 -0.037416
4.16922188 1.46764898 -0.08082800 0.953659 -0.028823 0.299507
4.16656923 1.42020798 -0.10573200 0.993326 -0.075714 -0.087015
4.16223907 1.44963896 -0.08624600 0.981487 -0.185879 -0.046174
4.16882801 1.40667999 -0.08499800 0.994137 -0.094627 -0.052323
4.17050886 1.40227401 -0.08077400 0.930887 -0.364928 -0.016646
4.16616392 1.40472496 -0.08391700 0.947127 -0.306927 -0.093527
4.16151524 1.39562702 -0.08648300 0.813636 -0.573736 -0.093937
4.16514397 1.40451503 -0.08852700 0.942008 -0.311307 -0.125332
4.16561222 1.42839897 -0.11926600 0.968831 -0.246149 0.027889
4.15297794 1.37624800 -0.08545700 0.997329 0.072667 -0.007372
4.15342999 1.38113797 -0.08243400 0.975203 -0.201980 -0.090457
4.16999578 1.41203594 -0.09060600 0.987372 -0.003370 -0.158384
4.17203808 1.41086304 -0.08313000 0.985217 -0.139722 -0.099119
4.16465902 1.42348099 -0.10907200 0.991467 -0.072044 -0.108638
4.17062187 1.45605397 -0.09193500 0.908469 -0.370010 0.194363
4.17691803 1.45582402 -0.09407200 0.880853 -0.421921 0.214662
4.17142677 1.36109805 -0.10296300 0.765117 0.541890 0.347780
4.16112804 1.41333997 -0.12703100 0.942282 -0.244910 0.228306
4.16916895 1.35098302 -0.08607500 0.914033 0.256393 0.314335
4.17207384 1.34870505 -0.08274100 0.912362 0.323461 0.250936
4.15543699 1.37580001 -0.09841800 0.905527 0.422757 0.036008
4.16928291 1.40142798 -0.06206800 0.867461 -0.497416 -0.009385
4.16731977 1.40210998 -0.05763100 0.863837 -0.500554 -0.056850
4.16243410 1.36948001 -0.04445600 0.795673 0.265224 -0.544573
4.16607285 1.38192403 -0.03835000 0.925631 -0.081950 -0.369447
4.17345190 1.42673099 -0.05704300 0.895058 -0.190655 -0.403140
4.17363691 1.42977703 -0.05497400 0.945340 -0.130068 -0.299022
4.17533588 1.43548000 -0.05938600 0.969226 -0.001189 -0.246171
4.17799997 1.42087197 -0.10142500 0.999876 0.004984 -0.014953
4.17749119 1.41233397 -0.10277400 0.978765 -0.022378 -0.203762
4.13805389 1.42343402 -0.02155800 0.795483 0.500978 0.340921
4.17720079 1.41200602 -0.05067200 0.787171 -0.344688 -0.511421
4.17403316 1.44455802 -0.07145900 0.966439 0.028101 -0.255355
4.17484188 1.44618404 -0.06839700 0.962826 0.056342 -0.264182
4.17681408 1.41925800 -0.07375500 0.997224 0.001049 -0.074451
4.16715813 1.50065696 -0.05043800 0.923065 0.209076 0.322859
4.17481422 1.41734397 -0.06563700 0.994747 -0.076690 -0.067798
4.17060804 1.39894295 -0.06623300 0.878477 -0.476577 0.033944
4.18091202 1.43326402 -0.07043400 0.963951 0.058915 -0.259477
4.17631292 1.43818402 -0.06257000 0.971080 0.068037 -0.228853
4.18268824 1.42934704 -0.06724400 0.962133 0.053940 -0.267190
4.18361616 1.40242898 -0.04623300 0.651480 -0.607936 -0.453859
4.17650795 1.43983197 -0.06794500 0.948505 0.079586 -0.306601
4.13598013 1.55459797 0.00029100 0.923231 0.348838 -0.161110
4.17188311 1.44861102 -0.07469500 0.973944 -0.059879 -0.218740
4.16413784 1.44071305 -0.07887400 0.966112 0.079355 -0.245622
4.15468216 1.43586099 -0.03014700 -0.081819 0.450700 0.888918
4.19395924 1.47523606 -0.03720500 -0.172380 -0.060630 0.983163
4.20083380 1.46969903 -0.03867100 -0.032746 -0.049647 0.998230
4.18451500 1.44577503 -0.02745300 0.773769 0.052725 0.631270
4.17960119 1.46619105 -0.04269600 -0.712128 0.234232 0.661823
4.18159819 1.46207500 -0.04164100 -0.775198 0.238643 0.584908
4.16100693 1.48724401 -0.06916800 0.805461 0.332034 0.490902
4.16530085 1.48244095 -0.06516600 0.811198 0.388799 0.436799
4.14865398 1.51877201 -0.05785200 0.985221 0.171195 -0.005669
4.14687490 1.51171601 -0.07110800 0.969441 0.244468 -0.020473
4.17185402 1.46881294 -0.04128600 -0.586177 0.207700 0.783108
4.14940977 1.48685896 -0.05955300 0.819446 0.084671 0.566867
4.14496708 1.48958004 -0.05454100 0.848911 -0.160924 0.503441
4.14645100 1.48632598 -0.05657200 0.858676 0.048396 0.510228
4.13549995 1.47471797 -0.04523200 0.826244 -0.106003 0.553249
4.13730001 1.46830201 -0.04563200 0.331348 0.295688 0.895978
4.16404009 1.39385605 -0.06757400 0.792130 -0.608571 0.046596
4.17387915 1.39778900 -0.04748900 0.725118 -0.594760 -0.347079
4.15901423 1.38913500 -0.06446700 0.850448 -0.522598 0.060246
4.17172480 1.39795399 -0.07649500 0.853901 -0.517894 -0.051373
4.14781380 1.40416396 -0.00856100 0.412975 0.618633 0.668389
4.17278910 1.37851501 -0.00545700 0.978908 0.197699 -0.051521
4.15445805 1.39900100 -0.01198400 0.549952 0.587179 0.593948
4.18225718 1.45143104 -0.03940900 -0.833922 0.001356 0.551880
4.18774796 1.45748401 -0.03687400 -0.738617 0.244106 0.628376
4.18129301 1.45723796 -0.04037200 -0.813679 0.172963 0.554986
4.17244101 1.47712803 -0.07500300 0.895188 0.234489 0.379017
4.16896677 1.41880703 -0.05467500 0.919608 -0.239586 -0.311318
4.14355278 1.41028905 -0.01609300 0.691767 0.602613 0.397890
4.18974304 1.40558505 -0.03647600 0.813416 -0.581406 -0.017953
4.18413782 1.40280402 -0.04204000 0.685051 -0.612419 -0.394523
4.19028282 1.40838301 -0.04427600 0.767419 -0.463070 -0.443434
4.18821287 1.43559098 -0.03950600 0.923789 0.264963 -0.276421
4.17590094 1.47102594 -0.06666000 0.940731 0.316269 0.122470
4.17558002 1.45304596 -0.07202600 0.986095 -0.017100 -0.165299
4.19288301 1.41440201 -0.04657200 0.771107 -0.273925 -0.574768
4.17352104 1.38564503 -0.01319400 0.968161 0.025510 0.249025
4.13614178 1.54618502 -0.15863299 0.349133 0.895860 -0.274849
4.17754507 1.45283794 -0.17191100 0.833637 0.507498 0.217934
4.17826700 1.46055603 -0.14307401 0.810552 0.585627 0.006857
4.18349504 1.43053901 -0.15495400 0.959055 0.001216 0.283219
4.20251322 1.50488305 -0.09303400 0.361372 -0.119541 0.924727
4.20017576 1.51047301 -0.09467200 0.387578 0.019444 0.921632
4.08815193 1.55565500 -0.06891200 -0.068951 0.966567 0.246970
4.11566687 1.57077706 -0.10513900 -0.465644 0.878920 0.103319
4.17416906 1.47414398 -0.18829399 0.484875 0.652652 0.582186
3.87894511 1.62716806 -0.11174800 -0.681806 0.730201 -0.044125
4.14431715 1.43807399 0.03599500 0.910561 0.080544 -0.405452
4.28769207 1.36497700 -0.28526500 0.362726 0.409833 0.836939
4.28439283 1.35648406 -0.27513799 0.265414 0.495130 0.827286
4.28465509 1.40048301 -0.25190699 0.413517 -0.736423 0.535430
4.11081886 1.57197499 -0.14986600 0.650164 0.358655 -0.669816
4.21167994 1.52765095 -0.29983401 0.318764 0.690925 0.648855
4.18041801 1.54842901 -0.29291001 0.761712 0.333350 0.555583
4.19209003 1.54476798 -0.30059901 0.680116 0.452854 0.576511
4.20851898 1.53126395 -0.30449399 0.335712 0.585469 0.737918
4.17754507 1.55958998 -0.29344499 0.819595 0.377173 0.431282
4.18724680 1.53463399 -0.29663301 0.586586 0.495825 0.640370
4.17660999 1.56375003 -0.30548400 0.782087 0.437383 0.443887
4.17182684 1.58739805 -0.29138801 0.924742 -0.090714 0.369626
4.18058395 1.62576199 -0.30001500 0.373779 0.380035 0.846086
4.18031788 1.61323404 -0.29994500 0.728884 0.004149 0.684625
4.17554522 1.62358606 -0.29378399 0.484227 0.444832 0.753424
4.15037584 1.61742795 -0.28795001 -0.458673 0.685508 0.565419
4.17139196 1.63081801 -0.29472101 0.135807 0.506719 0.851347
4.17165995 1.60854900 -0.28245601 0.548407 0.369402 0.750195
4.18274021 1.63648105 -0.30231100 0.127337 0.398803 0.908152
4.16430998 1.62264502 -0.28746000 0.101211 0.643939 0.758352
4.14463186 1.61227703 -0.29395300 -0.667159 0.660634 0.344182
4.15825319 1.62864602 -0.29734099 -0.101062 0.631271 0.768950
4.16250420 1.63416195 -0.30006999 -0.126706 0.642472 0.755762
4.16536903 1.63009596 -0.29369900 0.156513 0.553013 0.818340
4.15948391 1.62412798 -0.28987899 0.076709 0.655642 0.751166
4.05544376 1.54148304 -0.30148000 0.071384 -0.391939 -0.917218
4.04024220 1.58169401 -0.29439899 -0.032911 0.917554 -0.396246
4.13742685 1.59267402 -0.25745299 -0.144343 0.811002 0.566957
4.14990377 1.61798096 -0.29596800 -0.550316 0.680786 0.483408
4.15853786 1.60489500 -0.27168301 0.152639 0.642294 0.751106
4.14072990 1.60512197 -0.29069600 -0.677409 0.696270 0.237329
4.10845709 1.58440900 -0.25630999 -0.239207 0.958148 0.157268
4.00950813 1.58492196 -0.27848899 -0.468116 0.256313 -0.845678
4.15927410 1.59356499 -0.26449999 0.572517 0.449000 0.686019
4.13146210 1.59401000 -0.29669699 -0.633391 0.767968 0.095082
4.10514879 1.58443499 -0.28601101 -0.426711 0.881476 -0.202282
4.05921078 1.56639099 -0.27906400 -0.187430 0.266779 0.945357
4.06564283 1.56747305 -0.28112099 0.212802 0.750243 -0.625979
4.05871296 1.56884003 -0.28330800 0.406046 0.534271 -0.741404
4.06332207 1.56492805 -0.27707699 -0.009731 0.671464 0.740973
4.09633493 1.57666504 -0.26937699 -0.465672 0.884909 -0.009287
4.08128309 1.56573904 -0.30777001 -0.378685 0.762245 -0.524958
4.08499718 1.57088602 -0.30384201 -0.405986 0.829349 -0.383870
4.11117601 1.58116102 -0.29984999 -0.485660 0.849530 -0.205992
4.10409021 1.58597302 -0.28145301 -0.437787 0.885687 -0.154598
4.08710289 1.57077706 -0.30183399 -0.355665 0.871607 -0.337347
4.08371210 1.57070196 -0.30183500 -0.355541 0.852366 -0.383487
4.10567904 1.58461797 -0.26931700 -0.489933 0.871734 -0.006675
4.02370214 1.57044995 -0.29817301 -0.110606 0.897450 -0.427024
4.02082777 1.56717801 -0.29658300 -0.118032 0.934759 -0.335102
4.07023096 1.54236901 -0.24477001 -0.096098 0.844798 0.526385
4.09547615 1.57516599 -0.28347200 -0.403300 0.909834 -0.097728
4.16919184 1.55169702 -0.27458200 0.855928 0.028759 0.516295
4.10179996 1.57944500 -0.28209400 -0.461922 0.879784 -0.112283
4.05831194 1.54071903 -0.29801500 0.009612 0.806018 0.591812
4.08267784 1.57070696 -0.29706201 -0.350517 0.870936 -0.344395
4.09217215 1.57144499 -0.29929301 -0.356544 0.906640 -0.225568
4.09934378 1.56961095 -0.30489299 -0.329663 0.906940 -0.262265
4.09215212 1.56627595 -0.30428001 -0.394200 0.863559 -0.314440
4.17839098 1.65481305 -0.31060499 -0.200057 0.497887 0.843851
4.16178083 1.63858902 -0.30672899 -0.082048 0.580095 0.810406
4.18020391 1.65188301 -0.30771700 -0.196250 0.489875 0.849417
4.16794920 1.63583302 -0.29726601 0.054063 0.505976 0.860852
4.17711210 1.63036394 -0.29723901 0.396864 0.371766 0.839219
4.15433979 1.61003006 -0.27583599 -0.136696 0.725540 0.674467
3.77249694 1.54814804 -0.28705201 -0.936639 -0.053560 0.346178
3.77142406 1.51422298 -0.29361099 -0.858667 0.273977 0.433160
3.77520704 1.65926600 -0.30650201 -0.578930 0.695048 0.426318
3.77574706 1.64957798 -0.29112700 -0.565508 0.612775 0.552004
3.76812291 1.64315104 -0.29929900 -0.733473 0.501676 0.458627
3.77694106 1.65379405 -0.29497299 -0.507183 0.645353 0.571213
3.77535009 1.65448701 -0.30104899 -0.623718 0.606906 0.492586
3.77920699 1.65522802 -0.29264101 -0.440375 0.709585 0.550053
3.81404901 1.66197896 -0.30788001 0.290243 0.785083 0.547179
3.78212595 1.65941894 -0.29779300 -0.387983 0.738314 0.551689
3.78972197 1.66712105 -0.30380800 -0.114098 0.748304 0.653470
3.79331708 1.65339804 -0.29014000 -0.256313 0.845678 0.468116
3.80395889 1.65373003 -0.27514401 -0.112650 0.932417 0.343379
3.80216289 1.65729201 -0.29424199 -0.009339 0.879230 0.476305
3.78531504 1.64696395 -0.28407201 -0.447571 0.707129 0.547401
3.82434797 1.65298104 -0.29851699 0.112287 0.949820 0.291947
3.77948403 1.54267597 -0.30039901 -0.942827 0.042447 0.330568
3.77998495 1.54205799 -0.29409200 -0.944655 0.037070 0.325964
3.78034711 1.54592502 -0.29544100 -0.943838 -0.001247 0.330406
3.77974010 1.55717301 -0.26324400 -0.929620 -0.130449 0.344660
3.77069998 1.61001098 -0.28105900 -0.884761 0.076392 0.459742
3.77515006 1.55339205 -0.28207600 -0.936480 -0.120618 0.329327
3.84456897 1.65186298 -0.26622000 -0.486487 0.824369 0.289389
3.82580400 1.65235496 -0.30570599 -0.003984 0.880464 0.474096
3.77933002 1.55316198 -0.30369800 -0.992313 -0.005470 0.123629
3.77832007 1.54286599 -0.29232201 -0.946947 0.021379 0.320679
3.78613901 1.55677402 -0.24501801 -0.994066 -0.108776 -0.001077
3.77677608 1.55120397 -0.26876500 -0.931960 -0.061955 0.357229
3.77486491 1.54704404 -0.27054700 -0.944997 -0.026638 0.325992
3.77647090 1.54151404 -0.29389000 -0.949715 0.021328 0.312390
3.77379203 1.55391598 -0.28852901 -0.907668 -0.160511 0.387783
3.78779411 1.54374897 -0.25343299 -0.977124 0.064332 0.202708
3.78495097 1.54732597 -0.25470099 -0.979240 0.059019 0.193921
3.78552103 1.54095995 -0.25541100 -0.978337 0.096974 0.182901
3.77208400 1.58380103 -0.25435400 -0.888909 -0.363033 0.279371
3.77552009 1.55528200 -0.28086200 -0.928005 -0.174963 0.328931
3.78381705 1.55915403 -0.27647600 -0.943229 -0.080247 0.322303
3.80693507 1.64776599 -0.26328400 -0.071313 0.868346 0.490804
3.97075605 1.57991397 -0.26854700 0.687196 0.722064 0.079907
3.82313204 1.65204406 -0.28643399 0.155276 0.956874 0.245522
3.80527401 1.65505600 -0.28426099 0.030166 0.919404 0.392157
3.84849405 1.65764594 -0.27348199 -0.571718 0.795501 0.200791
3.81053591 1.65805995 -0.29727301 0.207252 0.869268 0.448799
3.81489110 1.65889597 -0.30314100 0.278457 0.826038 0.490023
3.81711411 1.65458906 -0.29279500 0.231523 0.892176 0.387839
3.82943797 1.65039694 -0.28674999 -0.013134 0.970688 0.239985
3.85282493 1.66663098 -0.29358199 -0.744288 0.597031 0.299316
3.80325103 1.67018402 -0.30496499 0.107295 0.768703 0.630542
3.92957497 1.67235303 -0.30717000 0.815522 0.166709 0.554195
3.84370399 1.65480494 -0.28904501 -0.542523 0.809942 0.222849
3.81107903 1.65285897 -0.27918801 0.063481 0.947029 0.314813
3.87470198 1.70626199 -0.30811399 -0.667853 0.587510 0.456952
3.86424708 1.68684304 -0.29855299 -0.700985 0.592126 0.397500
3.86802197 1.68243003 -0.28713799 -0.622453 0.652491 0.432213
3.86271906 1.67888999 -0.28432700 -0.628317 0.644983 0.434989
3.92930889 1.65813899 -0.29822800 0.815933 0.370589 0.443753
3.89972997 1.67860305 -0.26319700 0.219887 0.662780 0.715802
3.89424491 1.67972696 -0.26347300 -0.064763 0.729664 0.680732
3.88821411 1.67071295 -0.25781599 -0.176297 0.703654 0.688324
3.90458012 1.70364201 -0.28526700 0.129828 0.658092 0.741660
3.90628695 1.71937704 -0.29661000 0.193149 0.693792 0.693792
3.88961697 1.71483195 -0.30121201 -0.452707 0.659850 0.599712
3.90962696 1.70477200 -0.28800499 0.414110 0.499223 0.761111
3.91095901 1.71392000 -0.29308501 0.300755 0.619202 0.725351
3.91581511 1.67658901 -0.27836499 0.746891 0.486386 0.453411
3.91671801 1.69131196 -0.28392699 0.701953 0.361612 0.613595
3.92461300 1.67794800 -0.30213299 0.844306 0.069067 0.531391
3.94192791 1.64434898 -0.30330500 0.659141 0.467940 0.588698
3.93138194 1.64275706 -0.28442800 0.812893 0.539368 0.219742
3.96726894 1.62200403 -0.26911101 0.472877 0.749684 0.462992
3.94180012 1.61441600 -0.26866600 0.701851 0.518469 0.488462
3.94167900 1.62677705 -0.27345800 0.266737 0.765488 0.585559
3.91752911 1.66774702 -0.26776800 0.753136 0.534220 0.383920
3.92376208 1.66492498 -0.28635800 0.899882 0.303914 0.312809
3.92472100 1.64801204 -0.26635501 0.844165 0.514160 0.151743
3.95170212 1.62620103 -0.30062801 0.413294 0.876183 0.247976
3.84176993 1.63397896 -0.24045999 -0.326954 0.884434 0.332981
3.90007210 1.68667603 -0.26759401 0.182073 0.638021 0.748183
3.91892695 1.67697299 -0.28726500 0.865711 0.294678 0.404609
3.93942499 1.63746297 -0.29139799 0.696503 0.651463 0.300799
3.92930698 1.66654897 -0.30446899 0.835989 0.270422 0.477487
3.94731688 1.64455903 -0.30898899 0.530159 0.453709 0.716296
3.86981297 1.69551206 -0.30408800 -0.683435 0.586989 0.434006
3.87041497 1.70073199 -0.30891401 -0.680666 0.587470 0.437690
3.93373203 1.70060396 -0.30606899 0.582673 -0.037727 0.811830
3.80647302 1.67221498 -0.30745000 0.186359 0.706931 0.682289
3.83800292 1.65268195 -0.30446300 -0.235897 0.888694 0.393162
3.86167097 1.68630302 -0.30691701 -0.757267 0.567548 0.323165
3.96191311 1.62386405 -0.27304399 0.329671 0.763872 0.554812
3.96448708 1.62727106 -0.30382299 0.666180 0.505088 -0.548717
3.95756197 1.63369405 -0.30525899 0.335538 0.879080 0.338575
3.95669508 1.62659502 -0.30265099 0.403161 0.887544 0.222994
3.97112799 1.62722003 -0.28140199 0.720699 0.565675 0.400755
3.96671295 1.62240100 -0.28504699 0.485911 0.749456 0.449674
4.05669498 1.58558297 -0.28138801 0.293030 0.932369 -0.211711
4.00053215 1.56501496 -0.29296401 0.011339 0.998859 -0.046387
3.97414494 1.60884094 -0.29037300 0.780019 -0.073532 0.621420
3.96748209 1.63441801 -0.28321201 0.335769 0.915078 0.223365
3.96557498 1.63063097 -0.28670999 0.365552 0.890752 0.270061
3.95160294 1.64130902 -0.30838701 0.423598 0.579748 0.696030
4.03844309 1.56359005 -0.30695000 0.093117 0.363020 -0.927117
4.03206682 1.56158900 -0.30433500 0.071783 0.404965 -0.911510
3.77622104 1.47739005 -0.29677501 -0.354718 -0.691454 0.629338
4.05892706 1.55799901 -0.30611199 0.123135 0.204379 -0.971116
4.04804087 1.55737495 -0.30616301 0.118422 0.094972 -0.988411
4.01817608 1.56805599 -0.29281801 -0.135488 0.966482 -0.218071
4.01027107 1.56759906 -0.29219800 -0.092621 0.988351 -0.120759
4.04845190 1.54218102 -0.30018100 0.199936 0.686602 0.699001
4.04949379 1.54766297 -0.30367401 -0.035676 -0.257116 -0.965722
4.04748821 1.54702902 -0.29831699 0.469840 0.853569 0.225100
4.06200123 1.54840100 -0.30300099 0.142750 -0.273493 -0.951222
4.05691910 1.54641402 -0.30358899 0.079800 -0.202568 -0.976011
4.05376101 1.54992700 -0.30564201 0.047499 -0.225317 -0.973127
4.05247593 1.54378700 -0.30352899 -0.001249 -0.333408 -0.942782
4.04323483 1.55095601 -0.29942700 0.635565 0.730190 0.250757
4.04325104 1.55423605 -0.29585800 0.771844 0.635555 -0.018079
4.07488585 1.55964303 -0.30433801 -0.454062 0.624964 -0.635017
4.05031681 1.55152202 -0.29470101 0.480100 0.776298 -0.408492
3.99288392 1.56358397 -0.29269701 0.194785 0.980840 -0.003458
4.04471493 1.57317996 -0.28265300 -0.503727 0.110504 0.856766
4.06942987 1.56698406 -0.27643499 0.093497 0.973610 0.208186
4.06994677 1.56815195 -0.27385500 0.050986 0.934735 0.351669
4.03082705 1.53977895 -0.26903999 -0.041836 0.952075 0.302991
4.04296589 1.56830597 -0.27783501 -0.416058 0.264764 0.869940
3.99506211 1.56528699 -0.29563299 0.136325 0.990325 0.025913
4.04821587 1.57172799 -0.28941301 0.365535 0.598297 -0.713039
4.19544220 1.53590202 -0.30404401 0.503471 0.444045 0.741175
4.04623413 1.55916095 -0.27896699 -0.422765 0.296704 0.856292
4.05931711 1.55062306 -0.29300100 -0.479521 0.686701 -0.546353
4.06176901 1.56737196 -0.27548701 -0.145954 0.654537 0.741808
4.06834888 1.57394302 -0.27179199 0.100794 0.934023 0.342699
4.07073212 1.57464004 -0.28781199 0.209558 0.972499 -0.101642
4.07840109 1.57137597 -0.29211399 -0.246255 0.907794 -0.339512
4.06828880 1.57269597 -0.28848401 0.147878 0.911211 -0.384483
4.06783390 1.55536103 -0.29370299 -0.478523 0.708614 -0.518539
4.04528522 1.57928205 -0.29196900 0.296815 0.717169 -0.630531
4.07717085 1.57369697 -0.28680599 -0.019430 0.986362 -0.163441
4.03486013 1.56675100 -0.29622501 0.317371 0.736236 -0.597689
4.07131910 1.55422497 -0.30480999 -0.074355 0.104097 -0.991784
4.04334402 1.57446504 -0.29189500 0.297711 0.706461 -0.642091
4.08720589 1.57290900 -0.29970199 -0.344042 0.899233 -0.270213
4.02874279 1.58545196 -0.29438299 -0.190430 0.952151 -0.239051
4.03779793 1.58194602 -0.29174000 -0.199736 0.955786 -0.215823
4.02059889 1.57267296 -0.28051999 -0.439262 0.273965 -0.855566
4.02737808 1.57410395 -0.28082499 -0.020932 0.959194 -0.281971
4.04061508 1.57748401 -0.29794899 0.159350 0.742114 -0.651057
4.02332687 1.57724500 -0.30484399 -0.128540 0.808179 -0.574738
3.96620989 1.61606002 -0.28492400 0.854768 0.048488 0.516740
3.97921896 1.58627403 -0.30391201 0.577099 0.144647 0.803763
3.97570395 1.58753598 -0.30045399 0.579243 0.131848 0.804421
3.95904899 1.59340799 -0.27519301 0.869560 0.325512 0.371359
3.95754695 1.59854996 -0.27951401 0.813681 0.103348 0.572051
3.97813296 1.60516906 -0.29100299 0.624724 -0.161853 0.763887
3.96773005 1.61431396 -0.28743401 0.852777 0.071887 0.517304
3.96808696 1.62540197 -0.29677501 0.727477 0.608113 -0.317767
3.96518898 1.62818503 -0.29224199 0.531911 0.836698 0.130413
3.95516205 1.62902200 -0.28189501 0.246602 0.843962 0.476356
3.95874310 1.63170004 -0.27911901 0.229468 0.886783 0.401199
3.94688702 1.62546301 -0.29086700 0.371112 0.817083 0.441193
3.94357109 1.62920499 -0.27582601 0.152688 0.748323 0.645523
3.95415497 1.62438405 -0.29485700 0.469603 0.802972 0.367027
3.95560098 1.62451196 -0.29978299 0.585187 0.782822 0.211532
4.03842306 1.57259798 -0.29427001 0.132684 0.776720 -0.615711
3.97767091 1.62216699 -0.29322401 0.838360 0.544728 -0.020582
3.97241402 1.62312603 -0.29249001 0.813433 0.571877 -0.106226
3.97697997 1.58052695 -0.30198401 0.621807 0.369147 0.690715
3.98351502 1.57741904 -0.30419600 0.557835 0.454594 0.694380
3.96770096 1.62470198 -0.28893101 0.534128 0.809707 0.243067
4.02232981 1.57131898 -0.30480501 -0.052942 0.736892 -0.673934
3.96048188 1.64068699 -0.30820200 0.196373 0.663338 0.722095
3.94987202 1.63660800 -0.30459601 0.449700 0.721844 0.526033
3.97187209 1.62935197 -0.27762800 0.786820 0.439646 0.433157
3.97006989 1.62345302 -0.27430901 0.859618 0.119511 0.496764
3.99855995 1.57190394 -0.30306700 0.114319 0.684429 0.720061
3.98056602 1.57275903 -0.29452699 0.669869 0.643535 0.370321
4.00330114 1.56550896 -0.29501399 -0.067482 0.997237 0.031063
4.01927280 1.56700599 -0.30161101 -0.071662 0.915377 -0.396168
3.99637508 1.56885099 -0.29794201 0.157335 0.983646 0.087675
4.00741196 1.56551802 -0.29505399 -0.090917 0.995812 -0.009627
4.03703880 1.55996394 -0.29607400 0.653474 0.666577 -0.358674
3.79073691 1.42027903 -0.29203901 -0.384847 0.884997 0.262055
3.97756696 1.57245696 -0.28522500 0.663279 0.724836 0.186210
3.97925806 1.56845403 -0.29019800 0.605177 0.778085 0.168358
4.05235815 1.54011905 -0.30140299 -0.018488 -0.287186 -0.957696
3.96895194 1.63091505 -0.28571600 0.488782 0.845911 0.213369
3.97365904 1.63261902 -0.28085500 0.776874 0.543011 0.318758
3.98191500 1.56718600 -0.29130700 0.542989 0.825642 0.153227
3.97077799 1.58831799 -0.29305601 0.678603 0.179225 0.712304
3.98818302 1.57332301 -0.29781401 0.543604 0.722052 0.427944
3.99917793 1.58096504 -0.27037099 -0.270010 -0.316715 -0.909278
3.95822692 1.59154105 -0.27148899 0.864797 0.458536 0.204624
3.95742393 1.58842397 -0.26168099 0.772813 0.577642 0.262851
3.97170496 1.57623804 -0.28368199 0.662894 0.718782 0.209580
3.98644304 1.57780802 -0.27453300 -0.041022 0.983359 0.176981
3.98686504 1.56319594 -0.26695499 0.270088 0.940459 0.206375
3.98392105 1.56600797 -0.26822001 0.232626 0.967368 0.100423
3.96625495 1.57827604 -0.25911701 0.659186 0.734954 0.159114
3.97119308 1.57124805 -0.25686401 0.587462 0.801351 0.112804
3.97065592 1.57215500 -0.25979301 0.605730 0.789638 0.097793
3.96965504 1.57662296 -0.25458500 0.630998 0.766950 0.116742
3.97097301 1.57502794 -0.28646699 0.704363 0.685948 0.182613
3.99581599 1.56179595 -0.23825300 0.452807 0.890746 -0.039198
3.96574712 1.58585894 -0.28286001 0.825648 0.460790 0.325541
3.96803188 1.58104098 -0.28016701 0.720275 0.657778 0.220301
3.96202588 1.58328295 -0.25973001 0.702669 0.680953 0.206302
3.96498394 1.58036900 -0.25650400 0.684529 0.700052 0.203341
3.96698594 1.58593702 -0.28742000 0.812752 0.413561 0.410368
3.93688989 1.60812402 -0.22753300 0.950007 -0.018775 0.311662
3.93760991 1.60847199 -0.23133400 0.949256 0.068637 0.306922
3.96153688 1.59635401 -0.29293901 0.762011 -0.064577 0.644337
3.97248697 1.59155500 -0.29370299 0.683833 0.120676 0.719589
3.95292497 1.62376106 -0.27358899 0.220153 0.729158 0.647967
3.95362496 1.62775004 -0.27514401 0.184331 0.837733 0.514029
3.94872403 1.62409198 -0.29648700 0.467437 0.776891 0.421834
3.96787906 1.62739003 -0.29409799 0.643533 0.763393 -0.055649
3.96971893 1.61872399 -0.28875899 0.894374 0.212249 0.393759
3.96111703 1.62556195 -0.29858899 0.651057 0.742114 -0.159350
4.01109219 1.57755494 -0.27988601 -0.449441 0.619862 -0.643253
4.01380110 1.57443094 -0.28050101 -0.443199 0.630513 -0.637203
3.97113800 1.63419199 -0.28338400 0.664323 0.733618 0.143108
4.00144482 1.56662500 -0.27298701 -0.374378 0.923105 -0.087850
4.04375076 1.58109605 -0.29146001 0.219925 0.810494 -0.542893
4.05205679 1.57711196 -0.28312200 -0.176029 0.822972 0.540122
4.04915094 1.57662904 -0.28091499 -0.397468 0.332512 0.855252
4.08754587 1.57531297 -0.28633499 -0.299676 0.944719 -0.133040
4.00552416 1.58539498 -0.27148199 -0.358444 -0.032351 -0.932990
4.02227497 1.57201004 -0.28474399 -0.143970 0.933747 -0.327703
4.01279688 1.57328796 -0.28449100 -0.305795 0.862067 -0.404142
4.08629084 1.57277799 -0.29663000 -0.326328 0.902202 -0.282030
4.10490417 1.58991802 -0.26482600 -0.473297 0.880142 0.036616
4.05228901 1.58305299 -0.26957801 0.486566 0.463475 -0.740570
4.05649996 1.58467305 -0.27192000 0.411030 0.882899 -0.227031
3.96336508 1.62952399 -0.27589300 0.355889 0.809129 0.467603
4.06214380 1.58358705 -0.27348500 0.444978 0.870610 -0.209839
4.05948877 1.57162595 -0.27602601 -0.009685 0.767845 0.640563
4.07498693 1.56846797 -0.26624900 -0.278297 0.902624 0.328361
4.07190323 1.56839395 -0.27023801 -0.125978 0.893167 0.431721
4.07371378 1.56850803 -0.26183200 -0.441684 0.824794 0.353031
4.05611515 1.57705700 -0.28698301 0.370096 0.833110 -0.411043
4.06403303 1.57166600 -0.28579399 0.238258 0.876610 -0.418076
4.08601379 1.57464302 -0.28555301 -0.273078 0.953794 -0.125326
4.05074978 1.55827904 -0.27791199 -0.630146 0.209017 0.747815
4.05067205 1.58494794 -0.28006101 0.117329 0.987220 -0.107848
4.03412104 1.57455206 -0.27939501 -0.211521 0.948432 0.236084
4.07277298 1.57197404 -0.28200999 0.161351 0.983643 -0.080078
4.07311487 1.56845403 -0.27873701 -0.005093 0.999198 0.039723
4.06170321 1.57326806 -0.28744200 0.356311 0.839765 -0.409680
4.05346394 1.54635406 -0.29469100 -0.008334 0.970319 -0.241687
4.18984318 1.53146803 -0.29737100 0.484483 0.571656 0.662182
4.00187111 1.57121897 -0.27049100 -0.548585 -0.105664 -0.829391
4.00419092 1.57069898 -0.27304700 -0.665553 0.240732 -0.706461
3.77497911 1.52441800 -0.29730999 -0.909998 0.089215 0.404901
4.03259087 1.57030499 -0.27518100 -0.177180 0.495806 0.850167
3.78583288 1.47107995 -0.28719100 -0.727567 -0.618352 0.297130
3.77600408 1.52849102 -0.28820100 -0.936419 0.061727 0.345411
3.77321196 1.52823305 -0.29689801 -0.920782 0.096853 0.377862
3.78101206 1.47304904 -0.29657400 -0.495207 -0.701960 0.511881
3.79687500 1.47530901 -0.26903400 -0.811984 -0.192751 0.550935
3.78578401 1.46564806 -0.29591000 -0.692088 -0.639978 0.333831
3.77310610 1.47854495 -0.29017499 -0.360389 -0.770877 0.525231
3.77709699 1.47737598 -0.29482800 -0.424222 -0.724644 0.543071
3.79987597 1.46643603 -0.26549500 -0.893617 -0.006580 0.448783
3.79696012 1.45606697 -0.29392701 -0.871538 -0.462777 0.162045
3.78884792 1.46137595 -0.29850700 -0.742742 -0.591294 0.314175
3.79367900 1.43039799 -0.30475399 -0.592294 0.391013 0.704483
3.79012108 1.42383206 -0.29917201 -0.605132 0.684711 0.406185
3.79176998 1.42304099 -0.29043999 -0.487897 0.813162 0.317370
3.79184794 1.42518699 -0.29192501 -0.607090 0.732695 0.307571
3.79703689 1.45108402 -0.27245200 -0.980160 -0.197434 0.017524
3.80041289 1.45064199 -0.27625200 -0.971022 -0.236391 0.035156
3.80078697 1.44930899 -0.27321199 -0.971513 -0.224577 0.075686
3.80193305 1.43432605 -0.26877800 -0.982413 -0.178944 0.053328
3.79617596 1.45366800 -0.28342599 -0.932631 -0.350904 0.084057
3.77724290 1.53459299 -0.28192699 -0.948255 0.055326 0.312654
3.77547908 1.47272897 -0.29944101 -0.286007 -0.627937 0.723806
3.78700805 1.42330801 -0.30019799 -0.323896 0.850809 0.413781
3.79582000 1.45445001 -0.30260801 -0.855591 -0.466274 0.224838
3.78449202 1.45377505 -0.30525300 -0.390822 -0.528182 0.753845
3.79560304 1.45738006 -0.29963699 -0.831938 -0.522030 0.188051
3.79972911 1.44660497 -0.29516399 -0.951339 -0.215168 0.220581
3.80074191 1.44446301 -0.26441899 -0.970121 -0.241016 0.027856
4.03770494 1.54028499 -0.27174699 -0.273989 0.834350 0.478320
4.19330883 1.53603399 -0.30103201 0.498040 0.534932 0.682499
4.05767298 1.54863298 -0.26243800 -0.524051 0.732349 0.434781
4.00580502 1.24754703 -0.29370901 0.345078 -0.918787 0.191710
4.00322580 1.24700201 -0.28898901 0.429169 -0.883239 0.188952
3.80975795 1.45679700 -0.24541999 -0.961290 0.067126 0.267236
3.80671096 1.46443295 -0.25204399 -0.920601 0.125977 0.369625
4.03383398 1.25220895 -0.27907801 -0.312265 -0.934021 0.173481
4.03964281 1.24425304 -0.28213000 -0.533581 -0.811971 0.236632
4.00335884 1.24241805 -0.29880801 0.661953 -0.369577 0.652098
4.00429916 1.23341000 -0.28107399 0.936863 -0.255508 0.238753
4.00589085 1.24791396 -0.29831100 0.320254 -0.929995 0.180405
4.02311277 1.24815202 -0.29325500 -0.081455 -0.930725 0.356533
4.01385498 1.24758601 -0.29074001 0.242091 -0.950782 0.193402
4.00128889 1.24894297 -0.27646199 0.675631 -0.728854 0.110880
4.02050591 1.19833696 -0.30095401 0.612501 -0.052581 0.788719
3.99853802 1.18895996 -0.28983799 0.113897 -0.506050 0.854951
3.92675710 1.20133901 -0.29433501 0.794828 -0.604296 0.055453
3.92061400 1.19121897 -0.29879901 0.779604 -0.608361 -0.148711
3.92799592 1.20090795 -0.29871199 0.819750 -0.572589 0.012358
3.90678406 1.15011096 -0.29296800 0.687027 -0.654696 0.315224
3.92762804 1.20344400 -0.28136501 0.826330 -0.554263 0.099854
3.99360609 1.18680000 -0.29348901 0.006922 -0.646547 0.762843
4.01692486 1.19240999 -0.29626799 0.465802 -0.265953 0.843977
3.96760511 1.20584595 -0.28049999 -0.242830 -0.883424 0.400744
3.95444393 1.21279204 -0.25822201 -0.189279 -0.917933 0.348672
3.92126393 1.19480205 -0.29608899 0.827515 -0.554075 -0.090667
3.96155691 1.20949101 -0.27936301 -0.334407 -0.903047 0.269588
3.77765203 1.17230999 -0.29733399 -0.917409 0.041039 0.395823
3.95780301 1.21157598 -0.28505701 -0.410961 -0.890660 0.194512
4.00617599 1.22797000 -0.28615299 0.888422 0.042047 0.457097
3.99480605 1.19128299 -0.28650299 0.177618 -0.581434 0.793969
3.91280794 1.18875206 -0.30125400 0.785839 -0.599522 -0.151759
3.96453404 1.21102202 -0.26571199 -0.076533 -0.925104 0.371921
4.04335308 1.23744595 -0.28645101 -0.594441 -0.750622 0.288455
3.98247194 1.19666195 -0.28419700 -0.180997 -0.783306 0.594704
3.94640994 1.22498405 -0.24234299 0.087807 -0.925355 0.368791
3.93799901 1.22547495 -0.23680200 0.362413 -0.908198 0.209362
3.96208692 1.20792305 -0.28935501 -0.440875 -0.862055 0.249981
4.00782299 1.21759796 -0.28599301 0.739725 -0.117111 0.662640
4.03926706 1.23811197 -0.29538599 -0.513258 -0.775553 0.367538
4.01083088 1.24781096 -0.28950399 0.281283 -0.942640 0.179747
4.02455997 1.25442696 -0.26330599 -0.062687 -0.997680 0.026562
4.03990316 1.24412704 -0.25240999 -0.428192 -0.903072 -0.033348
4.00965786 1.24961400 -0.25075200 0.230479 -0.971914 -0.047559
4.00532722 1.25039899 -0.28352600 0.367554 -0.916771 0.156316
4.01943398 1.25074506 -0.29875201 -0.022523 -0.902264 0.430596
3.93447208 1.21107495 -0.29839101 0.677043 -0.644256 0.355734
3.93218398 1.22218800 -0.26005399 0.440356 -0.897799 0.006572
3.93253303 1.22112298 -0.26548001 0.366091 -0.930103 -0.029753
3.92987990 1.21666801 -0.27857199 0.796775 -0.566493 0.210324
3.93401098 1.21983004 -0.27852499 0.382763 -0.909239 0.163635
3.78853393 1.20347905 -0.23113801 -0.774851 -0.451860 0.442073
3.93241596 1.21920002 -0.28679001 0.707084 -0.649624 0.279322
3.93124199 1.21708703 -0.28852201 0.751067 -0.601806 0.271527
3.92270494 1.19329202 -0.27803701 0.902418 -0.414018 -0.119293
3.91803503 1.19475901 -0.28854600 0.841486 -0.528644 -0.111522
3.91582108 1.19171202 -0.29814401 0.791508 -0.589485 -0.161317
3.91292906 1.19171798 -0.29709899 0.799525 -0.575840 -0.170787
3.92492795 1.21376204 -0.25733700 0.791541 -0.599920 0.116446
3.92649508 1.21706498 -0.25752401 0.676192 -0.733863 0.064880
3.77737904 1.16680002 -0.28487000 -0.927542 0.037832 0.371799
3.77467608 1.16185999 -0.28711799 -0.940732 0.069538 0.331946
3.78252602 1.42465901 -0.21911401 -0.505793 0.815846 0.280300
3.77702999 1.13125098 -0.29166400 -0.528225 -0.438807 0.726930
3.77408600 1.14408898 -0.28860199 -0.685495 -0.308070 0.659689
3.77284694 1.15663695 -0.28763700 -0.881059 0.003975 0.472990
3.77919698 1.18825805 -0.28334501 -0.826038 -0.490023 0.278457
3.77328491 1.15901196 -0.28692600 -0.895156 0.011900 0.445595
3.77738905 1.16275203 -0.28027901 -0.913506 0.009096 0.406724
3.77667689 1.18464601 -0.29769799 -0.765117 -0.541890 0.347780
3.78057909 1.18610406 -0.28442699 -0.869608 -0.394446 0.296976
3.78763294 1.16994596 -0.25432599 -0.886148 -0.230072 0.402255
3.84056711 1.15327799 -0.28929800 -0.031556 -0.950458 0.309246
3.78989697 1.14769804 -0.27086699 -0.491886 -0.575825 0.653050
3.83840394 1.14900994 -0.29330200 -0.080041 -0.866406 0.492883
3.79376411 1.13966799 -0.27861300 -0.066848 -0.820660 0.567493
3.78480411 1.12698102 -0.29516101 -0.228812 -0.776717 0.586818
3.86448503 1.12924504 -0.29461399 -0.325106 -0.530098 0.783136
3.87691498 1.10836196 -0.29995000 -0.137909 -0.282513 0.949298
3.86289692 1.12283194 -0.29956499 -0.267225 -0.441303 0.856646
3.84641910 1.14659202 -0.29526299 -0.386077 -0.727797 0.566794
3.91176391 1.18794096 -0.29562700 0.790030 -0.586836 -0.177416
3.82814598 1.14826906 -0.29697400 0.198388 -0.886133 0.418819
3.80452800 1.13410795 -0.29910201 0.383609 -0.816561 0.431361
3.82903099 1.15242600 -0.28868499 0.304249 -0.940034 0.154171
3.88177896 1.13788199 -0.28580201 0.242593 -0.820490 0.517635
3.86649108 1.14184797 -0.28287801 -0.250964 -0.802774 0.540898
3.82833099 1.15537202 -0.27405801 0.300850 -0.947610 0.107352
3.85740805 1.14746594 -0.28274399 -0.412287 -0.838683 0.355852
3.83663607 1.15139604 -0.28988400 0.013970 -0.935977 0.351785
3.84093809 1.15277195 -0.25979701 0.112396 -0.874983 0.470926
3.87919807 1.12636399 -0.29586399 -0.056506 -0.475478 0.877911
3.87878394 1.11143696 -0.29892099 -0.125642 -0.273767 0.953554
3.87521911 1.12998796 -0.29364800 -0.162418 -0.528975 0.832950
3.88300610 1.13408804 -0.29207700 0.155363 -0.628992 0.761729
3.87642598 1.13553095 -0.28793600 -0.058822 -0.710173 0.701565
3.89869404 1.15055299 -0.27599400 0.545708 -0.800683 0.247201
3.88591003 1.14002502 -0.28246701 0.293899 -0.854001 0.429309
3.89773512 1.14487505 -0.28082299 0.533339 -0.797648 0.281615
3.87718010 1.14051700 -0.28168800 0.023324 -0.838310 0.544695
3.88839793 1.14147902 -0.27611300 0.267910 -0.898461 0.347839
3.89252591 1.13663399 -0.29761600 0.466802 -0.764901 0.443872
3.92183089 1.19167495 -0.25128001 0.892751 -0.290628 0.344283
3.91435289 1.17200303 -0.27542299 0.904808 -0.414300 -0.098379
4.00272799 1.20426905 -0.28200701 0.519801 -0.284242 0.805614
4.00312996 1.17861497 -0.29704601 -0.015167 -0.583256 0.812147
3.97234106 1.20859098 -0.26976401 -0.017348 -0.884756 0.465731
4.12937307 1.25503194 -0.27688301 0.576090 -0.562575 0.592984
4.10658693 1.21859705 -0.30235600 0.509680 -0.644249 0.570236
4.12243891 1.23646295 -0.30184501 0.445610 -0.809765 0.381723
4.14412403 1.24480903 -0.30015999 0.510445 -0.684499 0.520487
4.13475800 1.24101496 -0.29932800 0.423191 -0.783147 0.455620
4.12573481 1.23604095 -0.29651499 0.432484 -0.815496 0.384608
4.13115311 1.23797500 -0.30135199 0.408225 -0.821215 0.398695
4.16726398 1.26094198 -0.30378199 0.723066 -0.290188 0.626871
4.11981916 1.23562598 -0.29630700 0.459733 -0.792031 0.401661
4.12288094 1.24658895 -0.27808300 0.494119 -0.688417 0.530969
4.10561800 1.23932695 -0.27019101 0.462355 -0.730819 0.502127
4.12495518 1.25669003 -0.27169400 0.594152 -0.570454 0.567068
4.11526299 1.24042702 -0.27567899 0.496052 -0.703158 0.509413
4.11503220 1.24365997 -0.27232599 0.501230 -0.707717 0.497900
4.11261511 1.23251104 -0.29456899 0.487936 -0.750797 0.445221
4.11659479 1.23408902 -0.30101001 0.448563 -0.802268 0.393899
4.12762499 1.23810697 -0.29296499 0.446098 -0.786754 0.426632
4.10832691 1.22793102 -0.29778799 0.499747 -0.718905 0.483144
4.11987877 1.23583901 -0.30328000 0.447408 -0.803410 0.392885
4.08788013 1.22614002 -0.27827701 0.267848 -0.834510 0.481508
4.10051823 1.22973001 -0.28396901 0.439521 -0.783353 0.439521
4.15514612 1.25742805 -0.29633400 0.670412 -0.449728 0.590163
4.10668898 1.22445798 -0.29981601 0.515537 -0.699061 0.495516
4.08973789 1.21079004 -0.29838800 0.128459 -0.867459 0.480639
4.10373497 1.21124995 -0.30174899 0.419240 -0.584948 0.694315
4.06910419 1.21768904 -0.29857200 -0.298302 -0.832436 0.466976
4.07576513 1.21750498 -0.29221100 -0.093969 -0.882186 0.461430
4.08255386 1.21555495 -0.29412600 0.040038 -0.854605 0.517733
4.07046890 1.21994400 -0.29198599 -0.195382 -0.857591 0.475777
4.06598520 1.21988297 -0.30047899 -0.298302 -0.832436 0.466976
4.08009911 1.22443402 -0.28179201 0.094079 -0.880414 0.464780
4.16042614 1.25785398 -0.30390301 0.658612 -0.403130 0.635387
4.14003706 1.24634397 -0.29281899 0.471680 -0.698354 0.538349
4.04469585 1.24324906 -0.26326701 -0.518439 -0.855088 0.006733
4.14975882 1.26235998 -0.28900200 0.664309 -0.384079 0.641231
