-0.90127200 -1.15067899 0.51290703 0.679606 0.233860 0.695302
-0.88293701 -1.16342902 0.50073397 0.714022 0.241160 0.657278
-0.88449699 -1.13294804 0.48433700 0.797012 0.479490 0.367235
-0.88716501 -1.15327203 0.50118899 0.741819 0.324849 0.586667
-0.88292098 -1.14113200 0.48919401 0.792625 0.421335 0.440706
-0.86649197 -1.15520704 0.45837799 0.813948 0.550210 0.186435
-0.88970703 -1.12656200 0.45860901 0.785005 0.619451 0.006898
-0.88383800 -1.13230205 0.46140301 0.790812 0.612020 0.006877
-0.88556898 -1.12967598 0.46880099 0.799892 0.581604 0.148017
-0.88299203 -1.14921105 0.49469399 0.756496 0.375808 0.535241
-0.88407600 -1.13405204 0.45162401 0.788719 0.612501 -0.052581
-0.88120699 -1.13289905 0.46758801 0.817221 0.567555 0.100157
-0.88986200 -1.13233304 0.48814201 0.789644 0.463452 0.402089
-1.00971794 -1.12957895 0.46163800 -0.808671 -0.487745 -0.328870
-1.00182700 -1.14649999 0.50283301 -0.608211 -0.775052 0.171391
-0.98815900 -1.16318202 0.46746799 -0.788621 -0.610499 -0.073260
-0.94920999 -1.20378196 0.47209701 -0.588604 -0.765343 0.260374
-0.96313298 -1.19275999 0.44479400 -0.739835 -0.666873 -0.089014
-0.87943202 -1.16917098 0.50150698 0.699525 0.196114 0.687171
-0.96092200 -1.19613802 0.45637301 -0.708077 -0.705251 0.035333
-0.96707302 -1.17592394 0.50680798 -0.424301 -0.680546 0.597349
-0.96380103 -1.19008398 0.43445700 -0.772270 -0.630277 -0.079690
-0.82017499 -1.19528496 0.43575099 0.685381 0.662804 0.301568
-0.92746103 -1.19867206 0.49671099 -0.135179 -0.791765 0.595680
-0.84210002 -1.20361900 0.47383800 0.623178 0.138982 0.769632
-0.89159298 -1.18807197 0.49991900 0.388173 -0.335592 0.858312
-0.89354497 -1.17105305 0.50752997 0.575076 -0.034811 0.817359
-0.87779701 -1.18438601 0.49678999 0.597167 -0.064135 0.799549
-0.88976002 -1.17765999 0.50548100 0.529761 -0.114661 0.840361
-0.90435898 -1.18803000 0.50687599 0.285960 -0.414412 0.863996
-0.90563101 -1.19732296 0.49781901 0.215603 -0.471915 0.854875
-0.89949000 -1.17516506 0.51259398 0.420763 -0.265825 0.867350
-0.87855798 -1.17522001 0.50172698 0.680499 0.107758 0.724783
-0.84340602 -1.19714797 0.46900600 0.670777 0.323207 0.667529
-0.82747197 -1.18596494 0.42199600 0.640824 0.762886 0.085734
-0.83215398 -1.18333697 0.43385801 0.648905 0.737880 0.185621
-0.87201798 -1.14960301 0.46494099 0.832253 0.477573 0.281566
-0.86128402 -1.19177902 0.48304299 0.687469 0.130305 0.714428
-0.87839001 -1.16549098 0.49744901 0.720685 0.255012 0.644657
-0.87734598 -1.16354299 0.49164200 0.740412 0.324233 0.588781
-0.87598097 -1.17085004 0.49140200 0.744881 0.239930 0.622564
-0.85550201 -1.16863406 0.45828500 0.729809 0.593275 0.339711
-0.85724598 -1.18309498 0.47598499 0.754698 0.373274 0.539535
-0.87586302 -1.17264104 0.49750799 0.698386 0.169630 0.695329
-0.87024403 -1.19105303 0.49193901 0.562616 -0.054993 0.824888
-0.87364900 -1.17741096 0.49404001 0.713145 0.196463 0.672924
-0.86952800 -1.16756201 0.48239899 0.776890 0.381147 0.501167
-0.87506402 -1.14650905 0.47544399 0.832623 0.435986 0.341549
-0.86580700 -1.19060898 0.48783901 0.629082 0.043824 0.776103
-0.86449802 -1.16393697 0.47157800 0.796868 0.449144 0.404068
-0.87736499 -1.14103401 0.46423501 0.828027 0.534549 0.169199
-0.86374003 -1.15697598 0.45485100 0.792411 0.591687 0.148296
-0.87626398 -1.14633596 0.45192400 0.780563 0.624729 -0.020871
-0.85644501 -1.16612101 0.45333600 0.729234 0.630732 0.265320
-0.83203697 -1.18466902 0.41137499 0.575128 0.817867 -0.017930
-0.82137799 -1.19309402 0.44284701 0.673684 0.657372 0.337657
-0.82258999 -1.18826699 0.42913499 0.653112 0.741002 0.156080
-0.83539498 -1.18850100 0.45263299 0.676574 0.606755 0.417248
-0.82839298 -1.18788302 0.40303299 0.567383 0.820501 -0.069679
-0.83870900 -1.18256903 0.39256600 0.527274 0.838645 -0.136592
-0.84257400 -1.17744303 0.43041199 0.628796 0.774894 0.064455
-0.83718997 -1.18359494 0.44579700 0.688472 0.636142 0.348324
-0.86055100 -1.16442096 0.44048601 0.721938 0.690734 0.041132
-0.86911100 -1.16166401 0.39615500 0.571092 0.778761 -0.259587
-0.84484202 -1.17774606 0.41246700 0.579503 0.814097 -0.037703
-0.85927403 -1.16888702 0.39330700 0.539564 0.814696 -0.212463
-0.88629001 -1.13878095 0.42551801 0.701095 0.679234 -0.217043
-0.89732403 -1.12035000 0.43916899 0.737525 0.648221 -0.189385
-0.88917398 -1.13328505 0.43428701 0.732785 0.652564 -0.192838
-0.86927301 -1.15680504 0.43424901 0.726882 0.683701 -0.064772
-0.87545902 -1.15175700 0.41948199 0.674351 0.717166 -0.175851
-0.87496799 -1.15458703 0.40308899 0.612871 0.748364 -0.253656
-0.97248799 -1.17913699 0.42009699 -0.803228 -0.466546 -0.370351
-0.97775501 -1.16348398 0.42064700 -0.752323 -0.327027 -0.571894
-0.96746498 -1.18750596 0.42368901 -0.779429 -0.497474 -0.380802
-0.97887802 -1.14360404 0.41456401 -0.664827 -0.076767 -0.743042
-1.00293100 -1.13272500 0.44357100 -0.790077 -0.347762 -0.504816
-0.98834199 -1.13726294 0.42252201 -0.653205 -0.067772 -0.754142
-0.98959702 -1.12727594 0.42143899 -0.608099 0.015237 -0.793715
-0.99617398 -1.12079298 0.42479101 -0.664246 -0.009707 -0.747451
-0.99478298 -1.12940097 0.42648599 -0.705693 -0.110958 -0.699775
-0.94379598 -1.15568495 0.38405100 -0.435219 0.267240 -0.859748
-0.96959001 -1.15320802 0.40559900 -0.645378 -0.085953 -0.759012
-0.97254503 -1.13357401 0.40882099 -0.477392 0.150371 -0.865728
-0.92314702 -1.16680801 0.37325600 -0.242372 0.426033 -0.871637
-0.94787198 -1.14667296 0.38949400 -0.428763 0.270075 -0.862103
-0.94641203 -1.16160595 0.38474399 -0.476070 0.222166 -0.850881
-0.95321298 -1.19481301 0.41422701 -0.716703 -0.585499 -0.378852
-0.90754902 -1.19880795 0.35922700 -0.427641 0.249331 -0.868882
-0.88344300 -1.14309096 0.41692200 0.667151 0.713805 -0.213053
-0.89545703 -1.12766099 0.42530000 0.678043 0.681234 -0.276003
-0.90772003 -1.12947905 0.40176401 0.413791 0.723722 -0.552271
-0.94027299 -1.12441599 0.39887300 -0.140426 0.545446 -0.826299
-0.91172701 -1.14897501 0.38004601 -0.063524 0.551950 -0.831454
-0.84974998 -1.17650902 0.38287699 0.509183 0.826077 -0.241516
-0.88698298 -1.18317497 0.35245901 -0.215313 0.520721 -0.826129
-0.93330902 -1.15291405 0.38069999 -0.243865 0.411428 -0.878212
-0.93676901 -1.16417003 0.37910801 -0.398427 0.260105 -0.879546
-0.96026897 -1.16327202 0.39821699 -0.682500 -0.101712 -0.723774
-0.95387697 -1.13952506 0.39651901 -0.405797 0.319392 -0.856340
-0.91892999 -1.18065703 0.36862600 -0.418124 0.227662 -0.879399
-0.93439001 -1.13688195 0.39021799 -0.176412 0.481798 -0.858341
-0.91682303 -1.15717006 0.37562999 -0.173289 0.484320 -0.857558
-0.92122799 -1.14567101 0.38222501 -0.106749 0.476814 -0.872498
-0.90317398 -1.16871703 0.36678299 -0.209195 0.542074 -0.813875
-0.89684498 -1.18356097 0.35488701 -0.273614 0.435642 -0.857527
-0.88125598 -1.16767704 0.36754999 0.139982 0.717974 -0.681849
-0.89787298 -1.16337800 0.37011200 -0.012458 0.615999 -0.787648
-0.92579800 -1.18573999 0.37257999 -0.475631 0.137340 -0.868857
-0.92042798 -1.19386995 0.36995101 -0.551950 0.063524 -0.831454
-0.90313101 -1.18940306 0.35628200 -0.352415 0.334107 -0.874172
-0.87202698 -1.18926406 0.34698400 -0.161030 0.591447 -0.790101
-0.86433399 -1.19656503 0.33863899 -0.213626 0.564034 -0.797640
-0.88663799 -1.17620802 0.35776001 -0.121846 0.571060 -0.811815
-0.89303899 -1.19422603 0.35072300 -0.329989 0.372965 -0.867182
-0.85621297 -1.18436205 0.35717201 0.216273 0.814476 -0.538382
-0.82926297 -1.19560206 0.36408001 0.430106 0.867758 -0.249009
-0.86157203 -1.17072201 0.37960300 0.449239 0.817519 -0.360343
-0.84706002 -1.18583906 0.36430800 0.365888 0.851662 -0.375230
-0.87003499 -1.17028201 0.36998299 0.252627 0.779849 -0.572726
-0.86239702 -1.18664396 0.35052601 0.076462 0.786264 -0.613142
-0.83635497 -1.18761098 0.37891701 0.491081 0.844659 -0.213053
-0.84398699 -1.19131196 0.34990701 0.213053 0.844659 -0.491081
-0.80823702 -1.20325100 0.40623599 0.611218 0.789904 0.049635
-0.82380402 -1.19410002 0.38280499 0.510938 0.846655 -0.148717
-0.81673098 -1.20188296 0.37010700 0.462156 0.870026 -0.171658
-0.83304602 -1.19962502 0.34190199 0.207005 0.891150 -0.403733
-0.81976402 -1.20236003 0.35567701 0.367576 0.905138 -0.213572
-0.85122800 -1.20488799 0.33179700 -0.104563 0.734884 -0.670084
-1.16778803 -0.86209399 0.58152997 0.628509 0.724464 -0.283069
-0.67590201 -1.19860101 -0.17603201 0.113734 0.943327 0.311766
-0.71365899 -1.20032501 -0.17854600 -0.424618 0.880306 0.211569
-0.70037502 -1.19161403 -0.17256700 -0.222042 0.937046 0.269523
-0.67292899 -1.19141996 -0.22199699 0.113542 0.944402 -0.308567
-0.63383597 -1.19994700 -0.17546999 0.407215 0.838014 0.363192
-0.63334602 -1.19658303 -0.18143800 0.388034 0.887573 0.248282
-0.63629597 -1.19688106 -0.17891601 0.391878 0.862132 0.321186
-0.68547601 -1.18539596 -0.19406700 -0.009645 0.995597 0.093237
-0.65349299 -1.19907796 -0.22791401 0.314265 0.875995 -0.365883
-0.45993099 -1.19767296 0.34547099 0.473023 0.543224 -0.693655
-0.40581799 -1.12152100 0.52282798 -0.432405 0.900955 0.036145
-0.71641499 -1.20366895 -0.20477900 -0.540711 0.829483 -0.139966
-0.66966897 -1.20420003 -0.24209400 0.111149 0.844442 -0.523987
-0.68628103 -1.19237995 -0.23191300 -0.138298 0.893947 -0.426300
-0.64748901 -1.20210695 -0.18093200 0.333999 0.891163 0.307039
-0.65583098 -1.20210397 -0.17793600 0.290477 0.903871 0.314069
-0.63210100 -1.20048404 -0.21083000 0.435006 0.888676 -0.145002
-0.64174098 -1.19967794 -0.18561700 0.348673 0.910022 0.224250
-0.67000800 -1.18999398 -0.19062400 0.150614 0.980826 0.123675
-0.64027703 -1.19808304 -0.19335701 0.351475 0.928606 0.118982
-0.89318001 -1.12198699 0.47402000 0.780431 0.610318 0.135792
-0.65248698 -1.19830203 -0.22004600 0.330382 0.909643 -0.251789
-0.65221202 -1.20270097 -0.17395400 0.328415 0.858813 0.393173
-0.63824499 -1.19979000 -0.17401899 0.383152 0.846062 0.370641
-0.64128798 -1.20119798 -0.16956800 0.371548 0.826891 0.422141
-0.63483900 -1.19865000 -0.19623800 0.398962 0.914791 0.063135
-0.63072801 -1.20040703 -0.19315600 0.450625 0.885711 0.111597
-0.68739700 -1.18495500 -0.20620801 -0.069461 0.995603 -0.062845
-0.67661703 -1.20317101 -0.14399999 0.159237 0.723389 0.671827
-0.67886901 -1.20137000 -0.14647600 0.123533 0.754595 0.644457
-0.69480199 -1.18664801 -0.19596100 -0.186426 0.980239 0.066151
-0.69530302 -1.19353104 -0.21845099 -0.296150 0.911793 -0.284479
-0.64591998 -1.20213795 -0.17839500 0.351832 0.875773 0.330509
-0.67044801 -1.19336700 -0.23276800 0.121152 0.879418 -0.460376
-0.68016398 -1.18785095 -0.18717501 0.102326 0.977643 0.183693
-0.63998502 -1.19833899 -0.21383800 0.404015 0.898609 -0.171095
-0.62991399 -1.20066094 -0.18229800 0.445613 0.849594 0.282170
-0.66591698 -1.19362295 -0.22035800 0.203190 0.941309 -0.269538
-0.64707297 -1.20428300 -0.22855499 0.377168 0.855224 -0.355438
-0.70022500 -1.19288397 -0.20802000 -0.369374 0.918555 -0.140780
-0.70686102 -1.19326401 -0.19444600 -0.396612 0.917575 0.027488
-0.65369600 -1.19914198 -0.16230901 0.309882 0.822682 0.476621
-0.65053803 -1.20053506 -0.16977400 0.328393 0.848219 0.415550
-0.49559700 -1.19789696 0.32891199 0.090595 0.829733 -0.550759
-0.51015002 -1.19460702 0.33653301 -0.193403 0.897217 -0.396986
-0.99785203 -1.03203297 0.46219099 0.097222 0.584781 -0.805344
-0.96510798 -1.10687995 0.41437501 -0.254624 0.417341 -0.872349
-0.91671503 -1.09327805 0.46196201 0.754569 0.640559 -0.142513
-0.68299699 -1.18463302 -0.21262801 -0.047103 0.989170 -0.139012
-0.69201100 -1.18607700 -0.19009700 -0.129966 0.982639 0.132395
-0.70828301 -1.19617701 -0.20231600 -0.433820 0.898919 -0.061197
-0.66325402 -1.20432997 -0.16672701 0.260346 0.836495 0.482179
-0.66991103 -1.18712795 -0.20694400 0.157768 0.986911 -0.033396
-0.67923099 -1.19964397 -0.17185301 0.101429 0.929089 0.355677
-0.68200999 -1.19486201 -0.17732400 0.064627 0.959274 0.274984
-0.66939801 -1.20198095 -0.16248401 0.213502 0.840382 0.498172
-0.66906798 -1.20255303 -0.14767399 0.216625 0.734031 0.643640
-0.68367398 -1.19089198 -0.18099999 0.042204 0.975515 0.215843
-0.69058597 -1.19599700 -0.16266599 -0.053067 0.891254 0.450389
-0.68988299 -1.19272399 -0.17087200 -0.063688 0.944922 0.321039
-0.70174599 -1.19368696 -0.16851000 -0.238926 0.913711 0.328704
-0.66216397 -1.19815302 -0.18045300 0.230328 0.936666 0.263830
-0.67506802 -1.19290495 -0.18015000 0.111709 0.964296 0.240111
-0.67516398 -1.20089197 -0.16549800 0.154599 0.882805 0.443570
-0.68323803 -1.19784606 -0.16624799 0.052335 0.908474 0.414651
-0.68324202 -1.19988406 -0.14785500 0.043680 0.793280 0.607289
-0.68567002 -1.20142198 -0.14546099 0.038180 0.762186 0.646232
-0.66523403 -1.20463896 -0.17424300 0.234489 0.895188 0.379017
-0.68884403 -1.20157194 -0.15139399 -0.020786 0.807902 0.588951
-0.71483600 -1.20182800 -0.20944300 -0.530553 0.822433 -0.205228
-0.68931699 -1.18550301 -0.19765399 -0.101069 0.994030 0.041094
-0.68716502 -1.19150603 -0.17640799 -0.025421 0.969615 0.243312
-0.67946702 -1.18828297 -0.21828499 -0.022974 0.968520 -0.247873
-0.68746102 -1.18986595 -0.21765301 -0.156913 0.950868 -0.266887
-0.66993600 -1.18803406 -0.21230800 0.126976 0.989012 -0.075719
-0.70255500 -1.20657802 -0.23665699 -0.393754 0.839277 -0.374929
-0.69678301 -1.19589102 -0.23130000 -0.300022 0.872654 -0.385308
-0.65603399 -1.19801104 -0.21927400 0.300264 0.920906 -0.248544
-0.65489900 -1.19369996 -0.20132500 0.278054 0.960215 0.025952
-0.64659500 -1.19667101 -0.20337300 0.343568 0.938745 -0.026821
-0.68050802 -1.19406700 -0.23536500 -0.025563 0.883957 -0.466869
-0.69101399 -1.19672406 -0.23511000 -0.199463 0.876158 -0.438818
-0.82075602 -1.20523298 0.34160101 0.223103 0.933103 -0.282036
-0.65194201 -1.19665599 -0.21248101 0.326404 0.935510 -0.135205
-0.63987797 -1.19902396 -0.18986000 0.359721 0.918346 0.165048
-0.65576202 -1.19541001 -0.19168700 0.257324 0.956718 0.135920
-0.63122100 -1.19940698 -0.19962201 0.434043 0.900868 -0.006557
-0.64290398 -1.19994104 -0.17080501 0.360669 0.847805 0.388773
-0.66317302 -1.20145202 -0.16165200 0.252088 0.821219 0.511909
-0.62924898 -1.20219898 -0.19065200 0.457395 0.875585 0.155369
-0.65882599 -1.19982195 -0.16197500 0.286224 0.818008 0.498938
-0.65907598 -1.19999695 -0.15972801 0.284444 0.809329 0.513885
-0.66429698 -1.19160700 -0.19766600 0.187769 0.978119 0.089589
-0.66058803 -1.20214498 -0.15573300 0.273203 0.781708 0.560619
-0.66178900 -1.19455504 -0.22790900 0.235276 0.889315 -0.392127
-0.65192002 -1.20093703 -0.15947400 0.320040 0.797711 0.511108
-0.66705698 -1.19278800 -0.23105600 0.148003 0.886579 -0.438260
-0.67029899 -1.19225299 -0.18296701 0.151726 0.966120 0.208786
-0.69994903 -1.20356703 -0.15074700 -0.187074 0.795444 0.576431
-0.69357198 -1.18813801 -0.20813200 -0.220790 0.970215 -0.099671
-0.63789898 -1.19705200 -0.20305599 0.389262 0.918979 -0.062870
-0.65926999 -1.19640505 -0.18389601 0.241675 0.943224 0.227865
-0.64743501 -1.19818604 -0.18726400 0.309512 0.931337 0.191869
-0.66119301 -1.19184804 -0.20906800 0.233086 0.970577 -0.060430
-0.68066901 -1.18369305 -0.20878901 -0.001040 0.997710 -0.067624
-0.70010698 -1.20235205 -0.15382700 -0.185353 0.824294 0.534962
-0.67772698 -1.20095205 -0.15990700 0.119555 0.862812 0.491184
-0.65661299 -1.20393503 -0.17391101 0.304555 0.864692 0.399442
-0.64850497 -1.20049500 -0.22440200 0.367483 0.873724 -0.318688
-0.64532602 -1.19903195 -0.21894699 0.393162 0.888694 -0.235897
-0.66381299 -1.20134604 -0.15304901 0.249236 0.779059 0.575281
-0.69646001 -1.19667399 -0.16052499 -0.158216 0.878171 0.451424
-0.66856802 -1.19990301 -0.15565500 0.219925 0.810494 0.542893
-0.52488798 -1.20005202 0.33148500 -0.252976 0.924721 -0.284420
-0.50157899 -1.20228100 0.32039201 0.081857 0.811391 -0.578744
-0.48708999 -1.19939196 0.32847199 0.265320 0.729234 -0.630732
-0.68287402 -1.20077598 -0.15079600 0.055359 0.801998 0.594756
-0.71028298 -1.19961298 -0.17106700 -0.381692 0.874395 0.299575
-0.70892501 -1.19650805 -0.20626700 -0.459639 0.877493 -0.136883
-0.71816200 -1.20343006 -0.17300400 -0.474747 0.832753 0.284848
-0.70143402 -1.19186902 -0.17705899 -0.241047 0.943527 0.227273
-0.70010501 -1.18868697 -0.18566400 -0.249174 0.955390 0.158565
-0.69509101 -1.18791103 -0.18311501 -0.142472 0.969068 0.201515
-0.69369000 -1.19087195 -0.17276700 -0.104109 0.950157 0.293876
-0.70876402 -1.20015097 -0.22423300 -0.440154 0.834883 -0.330507
-0.70676202 -1.20212805 -0.22844100 -0.421888 0.839070 -0.343470
-0.67004901 -1.19162703 -0.22920100 0.132382 0.889665 -0.437003
-0.70427901 -1.19847000 -0.22385301 -0.405858 0.850591 -0.334327
-0.67330903 -1.20102298 -0.15572099 0.173252 0.815037 0.552900
-0.68507600 -1.20031500 -0.15515800 0.020567 0.835025 0.549828
-0.69690299 -1.20313299 -0.14598501 -0.126002 0.778248 0.615186
-0.67436802 -1.20113003 -0.15091901 0.171795 0.773836 0.609643
-0.68369597 -1.18439198 -0.20157000 0.001001 0.999735 0.023017
-0.68154901 -1.19058502 -0.22226100 -0.052929 0.943677 -0.326608
-0.67736298 -1.18593097 -0.21475400 0.040712 0.985228 -0.166337
-0.68136197 -1.19154406 -0.23092100 -0.044432 0.898075 -0.437593
-0.69094902 -1.19271600 -0.22723600 -0.201561 0.903401 -0.378471
-0.68932402 -1.20290101 -0.24115600 -0.165695 0.866600 -0.470691
-0.70019799 -1.19719803 -0.22935000 -0.360178 0.857934 -0.366361
-0.85140800 -1.19336998 0.34297401 0.046790 0.781257 -0.622453
-1.14606297 -0.97143102 0.51288903 -0.414096 0.038613 -0.909414
-1.14998496 -0.97205299 0.51528400 -0.484138 -0.065199 -0.872559
-1.16862404 -0.88063699 0.55017501 0.445781 0.679524 -0.582688
-1.20785499 -0.83122301 0.66550398 0.733673 0.573539 0.364385
-1.15319395 -0.89289403 0.54613799 0.456549 0.722178 -0.519636
-0.98445898 -1.02966499 0.50581503 0.666723 0.741929 0.070866
-1.02173400 -1.08254194 0.44615301 -0.568299 0.060940 -0.820562
-0.96096998 -1.09784806 0.55185997 0.559237 0.078665 0.825267
-0.26564899 -1.11868596 0.60179901 0.691825 0.098413 -0.715327
-0.95192897 -1.06535804 0.52170402 0.784202 0.539238 0.307000
-0.91172302 -1.11290002 0.42380399 0.546115 0.708787 -0.446519
-1.16087496 -0.93691498 0.52305001 -0.307899 0.203860 -0.929322
-1.23680699 -0.79113001 0.64896202 0.687365 0.726247 0.009720
-1.38824701 -0.77321500 0.67771900 -0.727089 -0.472028 -0.498528
-1.18410897 -0.85877103 0.55887401 0.407622 0.711276 -0.572652
-1.19309294 -0.85418802 0.56089997 0.185989 0.696305 -0.693230
-1.20956600 -0.83036703 0.58854097 0.433486 0.780923 -0.449721
-1.05118001 -0.99693400 0.48898301 0.192239 0.641309 -0.742811
-1.08757102 -1.01139402 0.48699200 -0.277780 0.232659 -0.932045
-1.07060397 -0.97122800 0.50567698 0.426478 0.691990 -0.582466
-1.06771100 -0.97066301 0.50891101 0.443498 0.702620 -0.556448
-1.12799799 -0.96955597 0.50612402 -0.195384 0.255502 -0.946860
-1.14765799 -0.99962401 0.53411198 -0.669506 -0.531913 -0.518489
-0.99998999 -1.02009296 0.48388499 0.339889 0.883711 -0.321761
-1.10544395 -1.00664306 0.49490800 -0.323719 0.018894 -0.945965
-1.10851598 -0.93364000 0.52640700 0.469715 0.743303 -0.476307
-1.11313403 -0.93863302 0.51845002 0.305193 0.676593 -0.670134
-0.98529798 -1.04466105 0.45798901 0.343678 0.601029 -0.721561
-0.98137099 -1.04241598 0.55063999 0.741509 0.545083 0.391216
-1.07259703 -0.96448600 0.51326901 0.484471 0.707560 -0.514438
-0.99577099 -1.06637096 0.43779400 -0.211426 0.460339 -0.862199
-1.09045696 -0.94459999 0.53470302 0.552752 0.762250 -0.336808
-1.01766598 -1.00546205 0.49934900 0.317806 0.922065 -0.220897
-1.05850101 -0.99914700 0.48676199 0.057386 0.533271 -0.843996
-1.11723006 -0.99831301 0.50104898 -0.319885 0.029080 -0.947010
-1.07614505 -0.97533101 0.50186902 0.239492 0.593252 -0.768567
-1.00256598 -1.02712095 0.46461999 0.055297 0.599762 -0.798265
-1.02524900 -1.11237395 0.46768099 -0.786696 -0.449309 -0.423356
-0.99198103 -1.02361298 0.46474400 0.192604 0.667179 -0.719567
-0.99385500 -1.02008605 0.46685499 0.175917 0.686841 -0.705197
-1.00096202 -1.02321398 0.46752301 0.123371 0.652526 -0.747656
-1.00319195 -1.02226496 0.47166499 0.130314 0.711484 -0.690514
-1.04172206 -1.00010502 0.48923299 0.216268 0.748380 -0.627021
-1.10117102 -1.03387702 0.50565100 -0.581163 -0.331862 -0.743046
-1.10570097 -0.92133802 0.58384800 0.763446 0.644907 0.035279
-1.10909498 -0.94655901 0.51266003 0.219180 0.607798 -0.763245
-1.07458103 -0.96641701 0.50830001 0.437399 0.686867 -0.580427
-1.04382002 -0.97994101 0.51923001 0.548532 0.785650 -0.286122
-1.12229896 -0.95440203 0.50919402 -0.032556 0.376352 -0.925905
-1.05861497 -0.97544301 0.50924200 0.483594 0.744371 -0.460487
-1.06075597 -0.96914500 0.52158302 0.554971 0.772482 -0.308673
-1.08154404 -0.96044499 0.51265001 0.395711 0.670556 -0.627508
-1.11142099 -0.91702598 0.57093000 0.707015 0.701160 -0.092219
-1.12749195 -0.89674097 0.58293903 0.708863 0.697024 -0.108031
-1.14265096 -0.89891499 0.54722899 0.501214 0.736107 -0.454897
-0.22325701 -1.08074403 0.68192202 0.597006 0.696231 -0.398555
-1.13397503 -0.90202898 0.55411601 0.538210 0.756096 -0.372357
-0.99635500 -1.02226400 0.48677900 0.537801 0.841104 -0.057571
-0.92126501 -1.10681605 0.42212501 0.471424 0.701305 -0.534725
-0.40790600 -1.12519801 0.48434299 -0.170017 0.954503 -0.244985
-0.93111497 -1.09061599 0.43509400 0.507857 0.707670 -0.491206
-0.95726699 -1.07111502 0.43950701 0.379029 0.766192 -0.518928
-0.96333301 -1.06533301 0.44116601 0.383772 0.746315 -0.543814
-1.00382495 -1.08016801 0.43463799 -0.367921 0.286829 -0.884513
-0.98199099 -1.03036404 0.47287500 0.689961 0.647752 -0.323064
-0.94232798 -1.08490598 0.43288800 0.404053 0.723998 -0.559078
-0.94552600 -1.09125304 0.42262900 0.287076 0.649530 -0.704058
-0.89934701 -1.11101103 0.47587001 0.769522 0.622518 0.142504
-0.98410600 -1.03103602 0.46859300 0.600188 0.663717 -0.446379
-0.98391300 -1.01842594 0.47118899 0.617715 0.696363 -0.365386
-0.93712598 -1.06847298 0.49074501 0.733298 0.664034 0.146057
-0.95701301 -1.05908000 0.46257100 0.559768 0.759801 -0.330699
-0.93680900 -1.06824601 0.47183299 0.626435 0.766972 -0.139042
-0.92848003 -1.08901203 0.50869101 0.785097 0.494917 0.372397
-0.98853999 -1.02932203 0.49058700 0.637877 0.770137 0.001378
-0.92893797 -1.07387197 0.47273600 0.731664 0.681493 -0.015330
-1.04989398 -1.09429896 0.50434202 -0.830285 -0.531083 -0.169049
-1.02614605 -1.02801204 0.59011698 0.621567 0.332693 0.709203
-0.39072600 -1.11685896 0.51555002 -0.175918 0.969477 -0.170782
-0.90590000 -1.12609804 0.50607198 0.753498 0.387373 0.531208
-1.05274999 -1.08018398 0.48228601 -0.770459 -0.356963 -0.528176
-0.93039799 -1.07539594 0.46668899 0.643443 0.744315 -0.178819
-0.93026799 -1.09033704 0.51247102 0.785120 0.464597 0.409557
-0.95063502 -1.08633494 0.54536301 0.725953 0.318514 0.609542
-0.90977001 -1.10370302 0.48255599 0.766353 0.601580 0.225398
-0.96560800 -1.04599905 0.50577199 0.682732 0.728534 0.055821
-0.93098003 -1.10117495 0.52303302 0.761995 0.365563 0.534534
-0.92586100 -1.10035801 0.51266301 0.771047 0.431982 0.467844
-0.94487798 -1.06462300 0.49564800 0.715574 0.682292 0.149771
-0.92643201 -1.07811296 0.47690299 0.746399 0.664563 0.035274
-0.96930802 -1.04163301 0.51095599 0.692854 0.718675 0.058814
-0.90529603 -1.11692905 0.49493399 0.763893 0.519578 0.382761
-0.36515000 -1.11990404 0.50875199 0.257794 0.889612 -0.377005
-0.37025601 -1.12672102 0.49145100 0.384881 0.774633 -0.501807
-0.39175901 -1.12014794 0.50196499 -0.015530 0.971208 -0.237725
-0.96431702 -1.05546606 0.53502798 0.766964 0.558811 0.315432
-0.98228800 -1.01283205 0.47241101 0.690873 0.711764 -0.126834
-0.98508799 -1.00799406 0.47185400 0.563341 0.814701 -0.137509
-0.37854499 -1.11769998 0.50943601 -0.023739 0.953295 -0.301106
-0.28221500 -1.07268298 0.64636302 -0.028941 0.950033 -0.310805
-1.07162499 -1.05825698 0.48915100 -0.636895 -0.198933 -0.744843
-0.98673099 -1.02749205 0.48190501 0.615432 0.782081 -0.097943
-0.99271601 -1.02526796 0.48450500 0.557429 0.823836 -0.102799
-0.93121099 -1.11771798 0.53535002 0.701629 0.202899 0.683043
-0.93835503 -1.11036396 0.53549898 0.687660 0.203349 0.696974
-0.93412000 -1.11696100 0.53759599 0.691342 0.199515 0.694435
-0.93039399 -1.10778797 0.52745998 0.765117 0.347780 0.541890
-0.97604799 -1.04319704 0.47170600 0.709606 0.635588 -0.304117
-0.35089901 -1.09761798 0.58998001 -0.282541 0.958129 0.046462
-0.98335201 -1.03299499 0.53925902 0.719447 0.643215 0.262050
-0.94596601 -1.06313097 0.47825000 0.604075 0.789266 -0.110233
-0.29378200 -1.13903201 0.57056600 0.762071 -0.067708 -0.643943
-1.00546002 -1.01995301 0.47881800 0.165268 0.771755 -0.614069
-1.02882898 -1.03951299 0.46154800 -0.179081 0.478043 -0.859886
-1.03774595 -1.01362801 0.47686800 -0.001357 0.563126 -0.826370
-0.96161801 -1.05472600 0.52524602 0.767270 0.587663 0.256807
-0.99608499 -1.01823199 0.47482699 0.198188 0.769707 -0.606855
-1.17051399 -0.99273098 0.58011502 -0.694788 -0.715095 0.076876
-1.20963502 -0.91904998 0.54738599 -0.507107 -0.056963 -0.859998
-1.18791199 -0.95824897 0.54701799 -0.690943 -0.434545 -0.577728
-0.98096102 -1.09556794 0.42252100 -0.246662 0.342992 -0.906374
-1.10014498 -1.00769806 0.49211499 -0.266887 0.156913 -0.950868
-1.12056506 -1.03420103 0.54766703 -0.655302 -0.718160 -0.234149
-1.08826900 -0.95627099 0.51317400 0.315806 0.646187 -0.694773
-1.15564001 -0.95860302 0.51723897 -0.317414 0.170489 -0.932836
-1.09518802 -0.95527101 0.51151800 0.315188 0.651389 -0.690181
-1.15813994 -0.96796799 0.51915199 -0.578947 -0.173835 -0.796619
-1.17815399 -0.93846703 0.52979302 -0.442052 0.102444 -0.891120
-1.16743100 -0.94661897 0.52453500 -0.398068 0.121516 -0.909272
-1.10733199 -0.92723203 0.53960901 0.538860 0.757009 -0.369551
-1.14611602 -0.90298897 0.53865898 0.419084 0.697369 -0.581417
-1.02789104 -0.99244601 0.54769999 0.693847 0.699946 0.169268
-1.03080404 -0.98759502 0.54474199 0.678924 0.723688 0.123848
-1.08037996 -0.95884103 0.51914400 0.505820 0.728049 -0.462701
-1.10367095 -0.94116300 0.51938200 0.386654 0.719012 -0.577513
-1.10283899 -0.93651903 0.52621102 0.459258 0.752261 -0.472426
-1.09714794 -0.94912601 0.51606500 0.358136 0.698284 -0.619788
-1.05056798 -0.97303200 0.53288800 0.568025 0.812940 -0.128359
-1.06458497 -0.96344298 0.53355402 0.548109 0.816879 -0.179683
-1.02396095 -0.99211103 0.53264201 0.688997 0.723233 0.047074
-1.02174401 -0.99232399 0.52851701 0.692944 0.720829 0.015337
-1.04440701 -0.97629201 0.52685302 0.567913 0.805925 -0.167211
-1.04952204 -0.97507697 0.52603698 0.545829 0.805600 -0.230392
-1.07228994 -0.95772201 0.52952200 0.551236 0.789949 -0.268551
-1.03409505 -0.99777198 0.49649900 0.365286 0.808734 -0.460994
-1.08376098 -0.96820402 0.50378400 0.268417 0.614658 -0.741719
-1.00613904 -1.01786995 0.48304799 0.248344 0.871463 -0.422938
-1.11860394 -0.91337103 0.55851001 0.612871 0.748364 -0.253656
-1.18852305 -0.86049199 0.55619800 0.279553 0.678915 -0.678915
-1.12668204 -0.90730703 0.55850101 0.580359 0.756225 -0.302170
-1.12039804 -0.93747199 0.51717901 0.194671 0.602407 -0.774086
-1.19940603 -0.92979598 0.54255497 -0.507107 -0.056963 -0.859998
-1.15354002 -0.97852403 0.52057499 -0.597051 -0.194924 -0.778161
-1.10991704 -1.01414800 0.49978101 -0.369548 -0.037869 -0.928440
-1.16737497 -0.99065900 0.55480403 -0.697174 -0.652091 -0.297869
-1.12293100 -1.01137495 0.51075298 -0.546932 -0.209887 -0.810440
-1.11592400 -0.99173802 0.49940100 -0.224162 0.197316 -0.954368
-1.13324201 -0.97885197 0.50698102 -0.354120 0.084187 -0.931403
-1.13367605 -0.98406798 0.50730199 -0.430757 -0.014490 -0.902351
-1.06926095 -1.01803601 0.48096699 -0.248750 0.254371 -0.934569
-1.06610894 -0.98185402 0.49790299 0.254430 0.643187 -0.722202
-1.09245801 -1.02777600 0.49191099 -0.488565 -0.156986 -0.858289
-1.09833705 -1.01728106 0.49177200 -0.379186 -0.082314 -0.921652
-1.06918597 -0.98886800 0.49227700 0.031717 0.541948 -0.839813
-1.08211899 -0.98430598 0.49598700 -0.036784 0.480913 -0.875997
-1.05546796 -1.01608098 0.47817400 -0.118461 0.397192 -0.910058
-1.06986403 -1.00080204 0.48633301 -0.131122 0.407466 -0.903758
-1.04652202 -1.04075003 0.46647900 -0.354193 0.218299 -0.909337
-1.04859304 -1.00786304 0.48161101 0.006757 0.531080 -0.847295
-1.06800199 -1.02915895 0.47875699 -0.346127 0.224476 -0.910937
-1.03355503 -1.01967704 0.47325301 -0.023624 0.604491 -0.796261
-1.01477206 -1.01371896 0.48145500 0.134502 0.869199 -0.475818
-0.98881698 -1.01089597 0.47375301 0.431138 0.845156 -0.315961
-0.98885399 -1.01598895 0.46921501 0.335714 0.803485 -0.491638
-1.00039697 -1.02011502 0.47745800 0.194115 0.787161 -0.585403
-1.04396200 -1.02689505 0.47047299 -0.131487 0.414254 -0.900614
-0.99298102 -1.03386998 0.46227801 0.208325 0.591025 -0.779289
-1.02284205 -1.09567702 0.44894600 -0.651254 -0.133245 -0.747070
-1.02911198 -1.08753705 0.45040900 -0.642689 -0.082694 -0.761651
-1.08923995 -0.99336201 0.49264699 -0.165394 0.368955 -0.914613
-1.10429597 -0.95121801 0.51031703 0.160932 0.588080 -0.792630
-1.03206396 -0.98649299 0.52367699 0.590085 0.785255 -0.187546
-1.05811000 -0.98840702 0.49486101 0.300839 0.693379 -0.654768
-1.12737000 -0.98554200 0.50295198 -0.386590 0.054468 -0.920642
-1.04350805 -0.97721303 0.54511201 0.640150 0.764423 0.076587
-0.96143502 -1.05258405 0.47697800 0.654845 0.739536 -0.155771
-0.99904197 -1.01851904 0.51112199 0.624386 0.778696 0.061438
-0.98575902 -1.00875199 0.47072399 0.527016 0.814480 -0.242644
-0.99181199 -1.01535499 0.47532099 0.350182 0.851332 -0.390648
-0.99353099 -1.01845098 0.47810400 0.384838 0.840361 -0.381697
-0.98824900 -1.01872599 0.47750300 0.542789 0.823903 -0.162986
-0.99001098 -1.02256501 0.48019001 0.602301 0.788763 -0.122828
-0.99736601 -1.01949000 0.47989601 0.319178 0.872014 -0.371102
-0.98793000 -1.00727606 0.47057199 0.527016 0.814480 -0.242644
-0.98745799 -1.00683796 0.47166201 0.582507 0.812769 0.009594
-0.96396297 -1.05981696 0.44942299 0.479792 0.718858 -0.503034
-0.99477702 -1.02142406 0.48210901 0.434311 0.870124 -0.232935
-0.99225998 -1.01625204 0.47169000 0.281847 0.801454 -0.527479
-0.98347998 -1.01463604 0.47106799 0.690873 0.711764 -0.126834
-1.02587700 -1.01160705 0.48240101 0.034890 0.816432 -0.576387
-1.00848901 -1.02537596 0.46828601 0.023611 0.601387 -0.798609
-1.02311695 -1.00840604 0.48844999 0.088081 0.885001 -0.457181
-1.01474595 -1.01113605 0.48977399 0.169160 0.939319 -0.298437
-0.97943199 -1.03669000 0.47846499 0.711924 0.658254 -0.244675
-1.00664306 -1.01712406 0.49029401 0.353707 0.920201 -0.167694
-0.98388398 -1.02030396 0.47609600 0.665294 0.743225 -0.070715
-0.98210198 -1.02211201 0.47258899 0.690706 0.678062 -0.251310
-0.93605298 -1.06950998 0.48192900 0.720364 0.688218 0.086210
-0.98031402 -1.03580701 0.47359899 0.707885 0.630131 -0.319115
-0.93046200 -1.08402801 0.50268197 0.767121 0.562128 0.309091
-1.02270305 -0.99948901 0.50672400 0.464860 0.831114 -0.305211
-0.97748798 -1.04114103 0.54423898 0.742440 0.583923 0.328356
-0.98939401 -1.02858698 0.48572001 0.616191 0.783587 -0.079369
-1.07575905 -0.94939500 0.56659400 0.675735 0.737038 0.012539
-0.99755698 -1.02249002 0.49420500 0.544228 0.838848 -0.012276
-0.97741300 -1.03622496 0.51062298 0.695470 0.715628 0.064795
-0.99973202 -1.01533604 0.52425599 0.680730 0.731679 0.035381
-1.02969503 -0.98774999 0.52858001 0.649267 0.759601 -0.038192
-1.02477598 -0.99765301 0.55434698 0.684412 0.684412 0.251320
-0.96670502 -1.04699194 0.52387398 0.752459 0.625761 0.205497
-0.26985100 -1.06733203 0.66664797 0.041767 0.953037 -0.299960
-1.19906604 -0.82948399 0.64451897 0.708330 0.661003 0.247679
-1.07492399 -0.95369101 0.53993398 0.592402 0.784286 -0.184269
-0.92367899 -1.12591505 0.52555001 0.692396 0.202917 0.692396
-0.92241901 -1.08199096 0.46802801 0.735007 0.674358 -0.070757
-0.38294101 -1.11855400 0.50329000 0.008646 0.952288 -0.305078
-1.01503801 -1.00198495 0.53100902 0.708145 0.705318 0.032510
-0.95518899 -1.05767596 0.51346201 0.751711 0.631806 0.189081
-0.94975299 -1.06006098 0.48728201 0.642955 0.765689 0.018131
-0.94726199 -1.06724405 0.51384902 0.779649 0.580457 0.234984
-0.93129402 -1.07584596 0.48445100 0.731057 0.675161 0.098553
-0.93210500 -1.07126200 0.47122499 0.667748 0.733477 -0.126977
-0.93616903 -1.08071601 0.44735500 0.533678 0.743864 -0.402311
-0.95756698 -1.05344903 0.49220601 0.649575 0.759481 0.035226
-0.21679400 -1.08539200 0.67382699 0.641331 0.611190 -0.463834
-0.21510500 -1.08497405 0.67653400 0.653059 0.609633 -0.449291
-0.92407697 -1.08140504 0.46170801 0.674612 0.711661 -0.196054
-0.94730300 -1.07127798 0.44982001 0.495044 0.777463 -0.387920
-0.90053499 -1.11219001 0.46530500 0.762057 0.646551 -0.035215
-0.91301697 -1.10056603 0.44551700 0.707673 0.660178 -0.251723
-0.44255000 -1.15740502 0.51427501 -0.796240 0.336687 0.502637
-0.35745099 -1.12681794 0.49985501 0.526798 0.687346 -0.500040
-0.90683001 -1.10543704 0.47185200 0.772490 0.633072 0.049792
-0.91952598 -1.09036100 0.47589201 0.767362 0.639705 0.043971
-0.90232700 -1.11117697 0.45319599 0.751748 0.652101 -0.098181
-0.98169500 -1.08294201 0.42798299 -0.132038 0.430188 -0.893031
-0.89572299 -1.11859095 0.48043099 0.757664 0.618217 0.209171
-0.94928598 -1.06138003 0.50314897 0.725985 0.668150 0.162852
-0.40914401 -1.12425196 0.49694100 -0.300244 0.946101 -0.121432
-0.32260001 -1.12441897 0.53996003 0.645201 0.470913 -0.601629
-0.34669200 -1.09742796 0.58865601 -0.221592 0.973292 -0.059989
-0.34588301 -1.09811199 0.57888103 -0.159497 0.975820 -0.149450
-0.38898301 -1.11492205 0.52971601 -0.308999 0.945564 -0.102116
-0.35845900 -1.11249495 0.52727801 0.191761 0.904015 -0.382080
-0.91219699 -1.11577904 0.50751197 0.753969 0.428728 0.497718
-0.89631301 -1.11588895 0.47591600 0.757143 0.636723 0.146010
-0.97249001 -1.03978705 0.49313301 0.711214 0.702864 0.012526
-0.93055898 -1.11520898 0.53128302 0.713223 0.227291 0.663062
-0.92014003 -1.10054302 0.50463599 0.758162 0.489612 0.430662
-0.95783401 -1.05481803 0.50827801 0.720794 0.681993 0.123863
-0.99047899 -1.02446496 0.52166897 0.667300 0.743806 0.038253
-1.08957899 -1.05191600 0.50920999 -0.703654 -0.557267 -0.440823
-0.94444901 -1.06581402 0.47174099 0.584709 0.797059 -0.151037
-0.93614602 -1.06847894 0.47676599 0.652652 0.756964 -0.032421
-0.93824703 -1.08404398 0.51906002 0.804794 0.438540 0.399987
-0.95424598 -1.07545304 0.54069501 0.758802 0.372089 0.534574
-1.05504596 -1.03229594 0.47265899 -0.243673 0.292123 -0.924818
-1.02324998 -1.12860405 0.52042401 -0.574816 -0.792480 0.203868
-1.03278100 -1.08627200 0.45450300 -0.675657 -0.139947 -0.723811
-1.04455197 -1.06986499 0.46604300 -0.613750 0.001373 -0.789499
-1.03745997 -1.09442699 0.46611699 -0.788725 -0.327969 -0.519951
-1.00818598 -1.04822099 0.45239300 -0.060613 0.545521 -0.835902
-1.05083597 -1.05291796 0.46637601 -0.468555 0.115359 -0.875870
-1.06080496 -1.04126000 0.47458801 -0.395134 0.103258 -0.912802
-0.98525798 -1.03481102 0.46644700 0.499503 0.590321 -0.634049
-0.98713797 -1.03836203 0.46258900 0.252635 0.585296 -0.770457
-0.98844802 -1.03163505 0.46491000 0.268189 0.607790 -0.747439
-1.04788899 -1.10382199 0.53746998 -0.665831 -0.734659 0.130174
-1.01315796 -1.11084402 0.44627500 -0.701717 -0.179652 -0.689433
-0.98851699 -1.03384101 0.55350500 0.716040 0.594789 0.365394
-1.04831696 -1.06123805 0.46587700 -0.570566 0.043458 -0.820101
-1.06392705 -1.05218804 0.47823399 -0.592720 -0.061120 -0.803086
-0.99012297 -1.02740300 0.54069501 0.705821 0.664767 0.244748
-0.99226302 -1.04615605 0.45392001 0.160199 0.555457 -0.815968
-0.96803999 -1.05069494 0.53757799 0.757439 0.570894 0.316806
-0.97874498 -1.03617895 0.52439100 0.709116 0.691050 0.140017
-0.96494102 -1.04605103 0.51045197 0.690166 0.719225 0.079914
-0.95487499 -1.05935895 0.46975201 0.583826 0.774783 -0.242609
-0.97319102 -1.04225099 0.48207501 0.726627 0.679463 -0.101698
-0.98105699 -1.04258597 0.46525800 0.572731 0.593004 -0.565973
-1.07849896 -1.03013098 0.48385701 -0.444367 0.028023 -0.895406
-1.03634799 -1.07887101 0.45927301 -0.610238 -0.026532 -0.791774
-1.04004598 -1.05424404 0.46121901 -0.476671 0.162802 -0.863875
-1.03550899 -1.07066798 0.45822299 -0.572967 0.052088 -0.817921
-1.02679396 -1.06274998 0.45333600 -0.468291 0.242535 -0.849635
-0.93914700 -1.07280004 0.45984700 0.532395 0.781806 -0.324553
-0.92309898 -1.09436405 0.44061700 0.592901 0.701902 -0.394717
-0.92359501 -1.09478498 0.43715000 0.590919 0.706140 -0.390105
-0.96584499 -1.07533097 0.43206999 0.107763 0.651004 -0.751386
-0.96947300 -1.06817198 0.43659800 0.172885 0.674710 -0.717549
-0.99624801 -1.05581295 0.44463399 -0.004058 0.542461 -0.840071
-1.01007903 -1.08734405 0.43692800 -0.576118 0.100131 -0.811210
-1.01994300 -1.05544496 0.45225000 -0.219608 0.402368 -0.888748
-1.01513898 -1.07465899 0.44262499 -0.433477 0.229488 -0.871454
-0.95832700 -1.08173203 0.42749500 0.185255 0.629254 -0.754798
-0.93238902 -1.10019004 0.42189801 0.381014 0.681207 -0.625127
-0.95642602 -1.08937097 0.42193300 0.109385 0.564428 -0.818202
-0.99235898 -1.09935105 0.42618600 -0.391813 0.218652 -0.893686
-1.00284302 -1.09238803 0.43296000 -0.422174 0.188444 -0.886712
-0.98357999 -1.12133205 0.41706699 -0.494476 0.154065 -0.855428
-0.98002797 -1.11265099 0.41689700 -0.403902 0.291114 -0.867246
-0.91633701 -1.12144005 0.40630701 0.383604 0.709585 -0.591047
-1.00304997 -1.11747396 0.43122700 -0.684741 -0.044131 -0.727449
-0.91786897 -1.09364104 0.45327100 0.725710 0.650798 -0.223175
-0.92025203 -1.10152805 0.43146899 0.564691 0.707106 -0.425588
-0.90516001 -1.11225700 0.43835500 0.702440 0.664384 -0.255288
-0.94739503 -1.10364497 0.41401601 0.079205 0.591876 -0.802128
-1.34643197 -0.81564701 0.63712001 -0.759232 -0.327227 -0.562573
-1.17379200 -0.86007899 0.57239199 0.564145 0.734206 -0.377732
-1.18629801 -0.86716503 0.67492002 0.641232 0.405948 0.651174
-1.08120501 -0.95716602 0.60758698 0.685691 0.511334 0.518040
-1.19496202 -0.83141297 0.63774902 0.701796 0.695733 0.153092
-1.14993703 -0.88193798 0.64408201 0.736439 0.522262 0.430001
-1.14986098 -0.88501102 0.64794499 0.736494 0.481617 0.474997
-1.18534601 -0.84132200 0.64222002 0.704605 0.663437 0.251758
-1.18891799 -0.83998299 0.64805400 0.703476 0.642304 0.304249
-1.22527504 -0.92061502 0.65427101 -0.379567 -0.701624 0.603036
-1.36459398 -0.80325699 0.67644501 -0.700445 -0.688130 -0.189351
-1.18838704 -0.83999598 0.65839601 0.694796 0.605677 0.387832
-1.12205994 -0.90414101 0.61034399 0.817204 0.544297 0.189519
-1.12171495 -0.90513998 0.58230001 0.716537 0.693282 -0.077031
-1.19948196 -0.84952599 0.56586897 0.192965 0.724004 -0.662255
-0.27694201 -1.07832694 0.62764198 0.171047 0.901231 -0.398152
-0.28469300 -1.07911503 0.62311798 0.105431 0.921497 -0.373802
-0.26001000 -1.07472003 0.64857000 0.236974 0.880828 -0.409861
-0.22777200 -1.10340703 0.64454699 0.714531 0.272126 -0.644510
-0.29114601 -1.11733997 0.57368499 0.677187 0.280160 -0.680389
-0.30243400 -1.09389699 0.58591700 0.296319 0.787542 -0.540346
-1.14127398 -0.89156801 0.63414901 0.768244 0.497483 0.402880
-0.38049200 -1.10659301 0.58564597 -0.552253 0.798045 0.241125
-0.92872900 -1.12446296 0.53075498 0.669663 0.186274 0.718925
-1.29056501 -0.85387403 0.68604600 -0.372641 -0.694392 0.615596
-1.17005396 -0.87271798 0.66188800 0.678253 0.470590 0.564374
-1.17219198 -0.86839098 0.66159499 0.678139 0.493953 0.544186
-1.05437601 -0.97187799 0.57661599 0.750644 0.587391 0.302498
-1.17923200 -0.84458798 0.61531401 0.681775 0.731560 -0.001383
-1.17406797 -0.85833400 0.64739901 0.697062 0.625234 0.350980
-1.18428504 -0.84766299 0.58765799 0.558768 0.775270 -0.294507
-1.23623502 -0.91685897 0.57812500 -0.731108 -0.482432 -0.482432
-1.21461105 -0.92470503 0.65771198 -0.312360 -0.661945 0.681366
-1.19157803 -0.91839600 0.66752398 0.181780 -0.468491 0.864565
-1.25655401 -0.88486302 0.57867098 -0.646541 -0.262111 -0.716437
-1.31141698 -0.84570599 0.62017697 -0.691292 -0.605499 -0.394317
-1.28167105 -0.86608702 0.59282601 -0.635314 -0.381189 -0.671618
-1.28843701 -0.85383803 0.59533697 -0.579329 -0.141481 -0.802721
-1.29335999 -0.83154202 0.70323598 -0.009267 -0.454065 0.890920
-1.40017498 -0.77424198 0.70053297 -0.666070 -0.616239 -0.420239
-1.31000698 -0.84390497 0.68439502 -0.420852 -0.794943 0.436977
-1.36836195 -0.78228998 0.65130699 -0.727822 -0.172419 -0.663737
-1.24080205 -0.85227698 0.68826801 0.280783 -0.197793 0.939169
-1.16803396 -0.87708598 0.66325301 0.673853 0.405636 0.617561
-1.19027400 -0.85123199 0.56473303 0.373806 0.739451 -0.559893
-1.14731205 -0.88904101 0.56102598 0.537327 0.741084 -0.402584
-1.13364899 -0.89122802 0.58544898 0.696503 0.708384 -0.114351
-1.29362702 -0.85785300 0.60483998 -0.733877 -0.433729 -0.522784
-1.21203494 -0.90362799 0.54979098 -0.412875 0.086416 -0.906679
-1.23658800 -0.85566503 0.56878698 -0.293952 0.338716 -0.893792
-1.15574002 -0.87646598 0.57478702 0.610036 0.734925 -0.296212
-1.15644395 -0.86764902 0.62112898 0.714697 0.687840 0.126825
-1.15131795 -0.86998600 0.62941998 0.726149 0.647731 0.230548
-1.23257995 -0.86364597 0.56442398 -0.333966 0.286469 -0.897999
-1.26244497 -0.89822102 0.60941398 -0.777696 -0.566314 -0.272904
-1.17234397 -0.87388098 0.55457401 0.429296 0.704443 -0.565212
-1.17415798 -0.86480999 0.56153500 0.467398 0.716898 -0.517298
-1.13636899 -0.91446799 0.52891099 0.334001 0.653338 -0.679406
-1.23353398 -0.89514601 0.56032997 -0.568187 -0.009584 -0.822844
-1.21153295 -0.94813299 0.61360198 -0.596691 -0.777692 0.197874
-1.16387904 -0.88780499 0.54440099 0.330437 0.669013 -0.665757
-1.18940401 -0.95046997 0.63922697 -0.304306 -0.700387 0.645644
-1.09114397 -0.93503797 0.57161999 0.688631 0.724949 -0.015365
-1.12399197 -0.89744002 0.59492302 0.742366 0.669667 -0.020971
-1.14503300 -0.88023502 0.59570003 0.696709 0.711377 -0.092406
-1.16072094 -0.87162203 0.58485800 0.629766 0.739701 -0.237144
-1.11193597 -0.92383701 0.53752702 0.503875 0.750069 -0.428376
-1.16278696 -0.86523002 0.59011698 0.648993 0.727185 -0.223629
-1.11507404 -0.91877598 0.55205601 0.585548 0.749180 -0.309618
-1.10087502 -0.92760003 0.56545401 0.688834 0.718209 -0.098405
-1.00379395 -1.02426100 0.56983501 0.684284 0.496901 0.533708
-1.00267804 -1.02769005 0.57556301 0.680116 0.452854 0.576511
-1.15183306 -0.88268799 0.56957000 0.583522 0.733060 -0.349463
-1.17953396 -0.84636998 0.62998003 0.705858 0.696904 0.126845
-1.12823296 -0.89370799 0.59246403 0.741074 0.670495 -0.035289
-1.13849699 -0.89208800 0.57009703 0.618681 0.742101 -0.257916
-1.15886199 -0.86554903 0.61378998 0.700592 0.712007 0.047087
-1.24090695 -0.81696999 0.69875902 0.652446 0.213330 0.727189
-1.16735303 -0.86157000 0.64397299 0.698486 0.623239 0.351697
-1.13056600 -0.89441198 0.57437098 0.662787 0.727076 -0.179090
-1.13131404 -0.89960903 0.56565100 0.615270 0.744967 -0.257812
-1.13105202 -0.90782303 0.54478699 0.513292 0.749439 -0.418177
-1.18577600 -0.84091300 0.60453701 0.643773 0.751819 -0.142561
-1.12717295 -0.89984399 0.57686299 0.674187 0.725239 -0.139642
-1.12564301 -0.90178001 0.57259798 0.665785 0.726726 -0.169112
-1.22166097 -0.83456397 0.68475598 0.708619 0.364947 0.603881
-1.18926501 -0.83491898 0.62101400 0.688853 0.724889 0.004158
-1.14785898 -0.87787700 0.59090000 0.679464 0.721462 -0.133493
-1.19112802 -0.84912997 0.56871998 0.427218 0.764409 -0.482871
-1.15695202 -0.87194902 0.58904302 0.643467 0.739139 -0.199058
-1.14982200 -0.87155998 0.60992700 0.712082 0.700712 0.044061
-1.14065194 -0.87727100 0.62594903 0.751427 0.613378 0.243155
-1.13676202 -0.88235700 0.62257701 0.772102 0.602578 0.201887
-0.37885100 -1.10475397 0.58034998 -0.518657 0.840786 0.155154
-1.06128597 -0.96884298 0.58451301 0.739648 0.577088 0.346253
-1.12693298 -0.90789098 0.62679303 0.820177 0.399737 0.409292
-1.16294098 -0.86003202 0.61398399 0.691458 0.722189 0.018159
-1.15128195 -0.87158197 0.60340101 0.695044 0.717785 -0.041219
-1.11925805 -0.90829998 0.57129002 0.678020 0.720301 -0.146476
-1.18126500 -0.84388298 0.62016398 0.690952 0.722037 0.035325
-1.16940105 -0.85578799 0.60735297 0.677233 0.734263 -0.047050
-1.18321502 -0.84388697 0.59827000 0.633634 0.752726 -0.178639
-1.08603299 -0.95225298 0.60778302 0.676751 0.518898 0.522257
-1.31008303 -0.83055103 0.60805303 -0.585930 -0.132020 -0.799535
-1.32587397 -0.83194101 0.62674600 -0.686701 -0.546353 -0.479521
-1.28270698 -0.87847102 0.61853200 -0.791478 -0.568439 -0.224588
-1.17475700 -0.87199599 0.66689199 0.665175 0.413039 0.622046
-1.17086196 -0.85714900 0.64013499 0.698823 0.650629 0.297201
-1.25403500 -0.90665001 0.59160602 -0.762206 -0.514122 -0.393344
-1.27307904 -0.89096999 0.62567699 -0.809058 -0.582808 -0.075894
-1.22785997 -0.87812102 0.55926102 -0.347521 0.173057 -0.921564
-1.27051604 -0.85645300 0.58441103 -0.486239 0.036774 -0.873052
-1.27521706 -0.84903002 0.58684498 -0.412483 0.140329 -0.900092
-1.20825005 -0.82744300 0.59744102 0.524101 0.791728 -0.313824
-1.22668695 -0.80503303 0.61802602 0.593020 0.760647 -0.264091
-1.20284903 -0.82500201 0.64685100 0.710990 0.660542 0.241200
-1.20834398 -0.82160300 0.64825302 0.718884 0.649365 0.248054
-1.27670395 -0.79543698 0.60487002 0.088814 0.642083 -0.761473
-1.22868800 -0.83529001 0.68817502 0.674443 0.244821 0.696556
-1.27176595 -0.75903702 0.66723198 0.650303 0.759386 -0.020978
-1.20153403 -0.82333201 0.62788898 0.678906 0.734214 0.004148
-1.26944804 -0.88282001 0.66465598 -0.510385 -0.713208 0.480460
-1.19332504 -0.83097702 0.62887299 0.688997 0.723233 0.047074
-1.21163094 -0.81524801 0.61785001 0.615195 0.770133 -0.168609
-1.20581305 -0.82033402 0.61676800 0.626435 0.766972 -0.139042
-1.26775098 -0.77594203 0.62399399 0.453796 0.744225 -0.490100
-1.25102794 -0.77822298 0.64151400 0.629144 0.759521 -0.165245
-1.19859600 -0.82756299 0.63187402 0.686771 0.721765 0.086029
-1.20479906 -0.83853602 0.67253000 0.693098 0.552808 0.462622
-1.19368994 -0.83453900 0.64081901 0.704162 0.676058 0.217026
-1.19844103 -0.82717103 0.63445199 0.696709 0.711377 0.092406
-1.20362699 -0.82351899 0.63694102 0.694323 0.712012 0.104664
-1.26653600 -0.76488799 0.66679198 0.667359 0.744734 -0.001382
-1.26220596 -0.76823699 0.66789299 0.678041 0.734427 0.029603
-1.17702997 -0.84702599 0.62509000 0.703210 0.706122 0.082988
-1.17326105 -0.85400599 0.63885599 0.712113 0.648389 0.269233
-1.17146003 -0.85154599 0.63083899 0.702171 0.689932 0.175925
-1.33281302 -0.83555198 0.65604001 -0.697724 -0.712229 -0.076880
-1.15668499 -0.88110203 0.64826202 0.718383 0.519293 0.462884
-1.19725299 -0.84631902 0.67022699 0.689089 0.568957 0.448825
-1.20225894 -0.82859898 0.65234101 0.715605 0.631984 0.297499
-1.21366000 -0.82336402 0.66352201 0.745593 0.587778 0.314019
-1.24850094 -0.78126901 0.67094702 0.718546 0.682544 0.133509
-1.29249406 -0.87029701 0.64516801 -0.685911 -0.723615 0.076857
-1.13382602 -0.89101601 0.60860300 0.760243 0.643953 0.085764
-1.25877297 -0.91369897 0.63429302 -0.610428 -0.771788 0.178105
-1.38565099 -0.75236797 0.66242498 -0.557975 0.029076 -0.829348
-1.29311001 -0.84139401 0.69685203 -0.212847 -0.728652 0.650970
-1.41724300 -0.76075900 0.71540701 -0.660480 -0.569727 -0.489058
-1.26048994 -0.90888202 0.63784200 -0.646494 -0.730616 0.219652
-1.16110504 -0.88307297 0.65901703 0.679627 0.391902 0.620097
-1.22699797 -0.81823200 0.68433702 0.770703 0.477412 0.422013
-1.23906398 -0.92022902 0.63946599 -0.561301 -0.755411 0.338075
-1.23121405 -0.80046898 0.66901702 0.758603 0.608446 0.233055
-1.30215204 -0.85865998 0.66411000 -0.603623 -0.746964 0.278718
-1.26268899 -0.80280101 0.71001101 0.542544 0.199085 0.816095
-1.25805998 -0.80800402 0.70611298 0.543012 0.136857 0.828498
-0.98608100 -1.00623000 0.47240600 0.582507 0.812769 0.009594
-0.27640700 -1.07585704 0.63651198 0.100244 0.915930 -0.388618
-1.15712202 -0.86716098 0.63434899 0.719209 0.636284 0.279072
-1.18537605 -0.84726799 0.65748501 0.694388 0.602023 0.394201
-1.19351399 -0.84488398 0.66401201 0.697537 0.588185 0.409244
-1.23459995 -0.81364000 0.69254202 0.771293 0.451687 0.448426
-1.13354003 -0.90760303 0.63597602 0.809591 0.378448 0.448708
-1.13144600 -0.90482801 0.63078600 0.818055 0.400257 0.413014
-1.12151504 -0.91078299 0.62314302 0.828861 0.437323 0.348911
-1.11971295 -0.91978699 0.62316102 0.812503 0.429398 0.394280
-1.15212202 -0.90052402 0.65222102 0.713241 0.286899 0.639513
-1.15311396 -0.90959799 0.65407401 0.644453 0.061718 0.762149
-1.14446199 -0.91182500 0.64734501 0.711227 0.162958 0.683814
-1.12935698 -0.89762801 0.62032199 0.810772 0.527547 0.253658
-1.12964404 -0.89409697 0.57790202 0.676546 0.721750 -0.146158
