0.34579799 5.11260223 0.12195900 -0.268202 0.946193 -0.181070
0.24374700 5.03223085 0.00787400 -0.523251 0.820936 -0.228634
0.21493500 4.98613501 -0.13467900 -0.554234 0.818720 -0.150074
0.17245300 4.96675682 -0.40994900 -0.800299 0.588844 0.113070
0.16065200 4.95933723 -0.46717399 -0.887761 0.407810 0.213475
0.28542101 5.00649595 -0.40164900 -0.163217 0.985174 0.052840
0.24213900 4.99289083 -0.41558999 -0.186703 0.981085 0.051135
0.33916199 4.99891090 -0.53175002 0.062812 0.997548 0.030874
0.33177301 5.02767086 -0.28322101 -0.043810 0.981592 -0.185899
0.27397400 5.07151794 0.04490500 -0.246194 0.938875 -0.240630
0.36652601 4.99878502 -0.51734799 0.194093 0.979993 0.044058
0.37548101 4.98888111 -0.44563901 0.545571 0.837097 0.040258
0.37552300 4.99004793 -0.46135801 0.509503 0.856700 0.080448
0.40544599 5.00897217 -0.18167600 0.849574 0.506223 -0.148199
0.37810501 4.99745703 -0.54411799 0.427199 0.903639 0.030609
0.38148001 4.99529314 -0.55597299 0.489523 0.871324 0.034089
0.30370101 5.04119205 -0.61420602 -0.320241 0.580939 0.748302
0.38686699 4.98772478 -0.49877301 0.682163 0.728314 0.064899
0.38305801 4.85555792 -0.52211797 0.808723 -0.578492 -0.106373
0.38291499 4.85627699 -0.60540301 0.919737 -0.384912 -0.076982
0.27367201 4.77035999 -0.58672798 -0.384504 -0.851514 0.356484
0.29085001 5.04649019 -0.62317598 -0.260122 0.528033 0.808404
0.29494300 5.04789686 -0.62189603 -0.323185 0.514230 0.794430
0.26261300 5.02424479 -0.59916103 -0.291939 0.956436 0.001222
0.19780600 4.86347818 -0.54433900 -0.755246 -0.622421 -0.205415
0.27510700 5.01182699 -0.57749802 0.050918 0.998611 -0.013509
0.27154699 5.01364422 -0.56972998 0.102792 0.992900 0.059868
0.23955099 4.81152201 -0.60866201 -0.962817 -0.269687 -0.015864
0.17399900 4.89167404 -0.57450002 -0.537641 -0.834873 -0.118019
0.29519299 5.04624319 -0.61441702 -0.256187 0.573670 0.777991
0.29742599 5.04627085 -0.61357301 -0.362900 0.561437 0.743701
0.14087600 4.91004610 -0.57148999 -0.641309 -0.742811 0.192239
0.15336600 4.99414682 -0.61092001 -0.248986 0.919666 0.303677
0.13997200 4.99159002 -0.61388803 -0.294187 0.900302 0.320797
0.08440200 4.93890715 -0.60736603 -0.602806 -0.082398 0.793622
0.20144700 4.83612919 -0.31684700 -0.645826 -0.762216 0.044001
0.26210099 5.02256584 -0.60660398 -0.313934 0.949306 0.016260
0.26635399 5.01762915 -0.60181803 -0.266581 0.963794 0.006031
0.26321200 5.01966619 -0.60571498 -0.287450 0.957757 -0.008562
0.26599199 5.01732588 -0.57479101 0.084868 0.995264 0.047394
0.34064701 5.03720903 -0.62304503 0.333262 0.713668 0.616128
0.42240801 4.90270901 -0.62970001 0.905221 -0.424199 0.025108
0.34000200 4.79496288 -0.52172703 0.531794 -0.841410 0.096038
0.14517200 4.98637676 -0.59113801 -0.342417 0.896806 0.280159
0.16501200 4.99187994 -0.59087300 -0.234310 0.941398 0.242628
0.10032900 4.92598820 -0.60249400 -0.634050 -0.456717 0.624012
0.28880599 5.04447317 -0.61576498 -0.166683 0.563120 0.809391
0.32671300 4.77985907 -0.56106502 0.401199 -0.886783 0.229468
0.27723500 4.77744722 -0.56142402 -0.312255 -0.901248 0.300416
0.41230401 4.93139601 -0.51990098 0.996437 0.084011 0.007444
0.40589699 4.95366621 -0.46491599 0.913200 0.405423 0.041207
0.30263501 5.03543091 -0.61168098 -0.282121 0.616841 0.734789
0.15823300 5.00448799 -0.61983901 -0.129476 0.914688 0.382860
0.18269500 4.99708891 -0.61053199 -0.019314 0.987264 0.157917
0.38323501 4.87577391 -0.60064298 0.823713 -0.563742 -0.060754
0.40052500 4.88142204 -0.62402701 0.698798 -0.710469 0.083156
0.28725201 5.01660585 -0.60927898 -0.227254 0.802346 0.551903
0.10919100 4.97258282 -0.59491199 -0.548596 0.612740 0.568852
0.15242100 4.98673296 -0.57557601 -0.349546 0.905308 0.241318
0.15534300 4.89970398 -0.60914600 -0.348481 -0.933289 -0.086787
0.10886600 4.92341423 -0.59767401 -0.629426 -0.582177 0.514678
0.11184400 4.97998810 -0.60777098 -0.427687 0.724921 0.539975
0.11974700 4.98348904 -0.60881400 -0.376983 0.831256 0.408530
0.21692300 4.85559702 -0.58900100 -0.752551 -0.622213 -0.215680
0.10500600 4.97539616 -0.60383201 -0.506597 0.587383 0.631142
0.17946699 4.89628220 -0.61375302 -0.399914 -0.905813 -0.139899
0.16804700 4.89654112 -0.60698199 -0.362048 -0.923704 -0.125271
0.23420200 4.82964993 -0.57785398 -0.842569 -0.513834 -0.161406
0.22777700 4.84949923 -0.61134201 -0.811002 -0.566957 -0.144343
0.30486500 4.75530195 -0.60606998 0.128306 -0.922975 0.362844
0.30926400 4.74958611 -0.62046999 0.138008 -0.935992 0.323840
0.32283500 4.76232290 -0.60468000 0.363868 -0.875415 0.318194
0.27641001 4.75319815 -0.62184000 -0.347615 -0.860541 0.372335
0.23971900 4.81713295 -0.59011602 -0.916647 -0.384578 -0.108895
0.26075399 4.77489805 -0.59797400 -0.594110 -0.747842 0.296254
0.23812000 4.83932400 -0.59996903 -0.830717 -0.533502 -0.159010
0.32487401 4.77087688 -0.58684701 0.373481 -0.878511 0.297877
0.22369900 4.84758186 -0.58491302 -0.777867 -0.593027 -0.207945
0.34168401 4.78837299 -0.56433702 0.547052 -0.818318 0.176323
0.23790701 4.81982517 -0.56870902 -0.876819 -0.471484 -0.094297
0.38690999 4.98352098 -0.46221000 0.637686 0.765514 0.085703
0.18152000 4.88264608 -0.55111498 -0.673711 -0.732422 -0.098341
0.19793700 4.87427807 -0.57610798 -0.680953 -0.702669 -0.206302
0.19506100 4.87663317 -0.56609100 -0.688236 -0.697515 -0.199511
0.21703400 4.84821796 -0.56451702 -0.745984 -0.627623 -0.222705
0.42248699 4.91592503 -0.62580198 0.994551 -0.079074 0.067937
0.38581800 4.86365318 -0.55151403 0.878175 -0.473077 -0.070753
0.29427201 4.78343582 -0.52656102 -0.115878 -0.959574 0.256494
0.34002399 4.76947021 -0.62222600 0.602782 -0.737806 0.303802
0.33329201 4.77373314 -0.59340000 0.574829 -0.778447 0.252173
0.30635300 4.78225279 -0.52556002 0.001197 -0.966294 0.257439
0.27364999 4.77169418 -0.58071798 -0.396313 -0.873103 0.283948
0.15526800 4.94089890 -0.45817399 -0.970262 0.155088 0.185849
0.19801700 4.87756777 -0.58155698 -0.659034 -0.724162 -0.203137
0.20297000 4.86473989 -0.56155801 -0.733048 -0.645892 -0.213222
0.18510200 4.89284515 -0.60191000 -0.509528 -0.841245 -0.180800
0.15419300 4.90433884 -0.56304801 -0.641667 -0.755343 0.133120
0.16324000 4.89849186 -0.56032801 -0.595721 -0.803048 0.015204
0.08211100 4.96618414 -0.60993499 -0.508228 0.323418 0.798189
0.16163801 4.89955997 -0.54912102 -0.690569 -0.716960 0.095301
0.28813300 5.01183414 -0.57639498 0.125962 0.984900 0.118764
0.16294900 4.89553499 -0.57488400 -0.499590 -0.864193 -0.059839
0.10427500 4.95811415 -0.58667499 -0.725174 0.278913 0.629547
0.06987900 4.95066309 -0.61338300 -0.487777 0.119426 0.864761
0.12897600 4.91374493 -0.58964700 -0.588486 -0.725419 0.357004
0.10294100 4.95075703 -0.58631802 -0.736470 0.143077 0.661166
0.25053999 5.01536989 -0.57976401 -0.200469 0.978339 -0.051618
0.12779000 4.98091984 -0.58904999 -0.417024 0.826120 0.378969
0.10955600 4.94908524 -0.58009899 -0.779638 0.088562 0.619936
0.15742700 4.98374319 -0.55370301 -0.459376 0.856593 0.234994
0.14932600 4.91341782 -0.53615397 -0.796802 -0.558535 0.230531
0.12804300 4.95794582 -0.55254501 -0.837939 0.307400 0.450958
0.11863100 4.95813322 -0.56944603 -0.822857 0.248555 0.511005
0.07319100 4.96942282 -0.61587000 -0.460046 0.214288 0.861649
0.19104700 4.99575090 -0.56986099 -0.150994 0.986731 0.059695
0.17203400 4.99334478 -0.57686001 -0.220581 0.951339 0.215168
0.18550301 4.99586487 -0.57915598 -0.102752 0.982788 0.153523
0.29156101 5.00990105 -0.58200699 0.065212 0.973262 0.220245
0.30365899 5.00846100 -0.57439798 0.023797 0.950645 0.309367
0.21157800 4.99656582 -0.56667101 -0.221544 0.975029 0.015401
0.12364600 4.98852682 -0.61748201 -0.323753 0.866920 0.378990
0.19619200 4.99694204 -0.60453498 -0.053860 0.980247 0.190304
0.15287800 4.98941517 -0.60254300 -0.281899 0.917980 0.279008
0.29817000 5.01545191 -0.60096502 -0.225820 0.767787 0.599590
0.15589300 4.99742699 -0.61213303 -0.204036 0.930124 0.305351
0.14679700 4.99428892 -0.61717999 -0.236435 0.900215 0.365666
0.26018500 5.02576399 -0.59259802 -0.087231 0.989779 -0.112819
0.26290399 5.01580715 -0.59170502 -0.056114 0.990591 -0.124826
0.29238299 5.04338503 -0.61430502 -0.217675 0.578922 0.785791
0.29875001 5.03748512 -0.61317903 -0.311448 0.614827 0.724560
0.30044201 5.05025816 -0.62501699 -0.269609 0.559715 0.783601
0.32237601 5.03403997 -0.60776699 -0.206322 0.643787 0.736865
0.30458400 5.01652098 -0.59213698 -0.187763 0.780056 0.596873
0.32144201 5.04174900 -0.61601001 -0.149007 0.639675 0.754064
0.26583999 5.01264000 -0.59215498 -0.034145 0.994598 -0.098028
0.29052001 5.04253387 -0.62128502 -0.274876 0.538758 0.796356
0.31148300 5.05794477 -0.62678498 -0.124674 0.550034 0.825784
0.29071400 5.04739618 -0.61955798 -0.202666 0.537903 0.818283
0.28910100 5.04614019 -0.61937100 -0.205409 0.534062 0.820113
0.29110101 5.04616880 -0.61639202 -0.248127 0.563357 0.788075
0.29184401 5.03691387 -0.62456399 -0.305437 0.561300 0.769189
0.23187201 5.00151205 -0.56816602 -0.434765 0.900111 0.027921
0.27323800 5.00527477 -0.62177402 -0.299175 0.943552 0.142142
0.28491801 5.00846577 -0.60541099 -0.195053 0.887273 0.417972
0.28254801 5.01081800 -0.61264700 -0.264178 0.832700 0.486643
0.31086299 5.00579977 -0.57239002 0.013961 0.937948 0.346495
0.29444799 5.01383781 -0.60282999 -0.220558 0.794319 0.566049
0.29686499 5.02144289 -0.60319102 -0.242935 0.757017 0.606554
0.30338499 5.02297688 -0.59821397 -0.251016 0.718317 0.648854
0.32505301 5.00002623 -0.57023603 0.019196 0.932909 0.359599
0.31935400 5.00940704 -0.58019400 -0.080124 0.864499 0.496208
0.30954999 5.01872778 -0.59150702 -0.226544 0.748376 0.623387
0.26739299 5.01134920 -0.58635598 -0.007458 0.996241 -0.086305
0.30055001 5.01496410 -0.59574503 -0.205109 0.775715 0.596822
0.29185900 5.02217722 -0.60722297 -0.198935 0.760271 0.618395
0.29248801 5.03579187 -0.62614900 -0.307692 0.550020 0.776405
0.26418099 5.00662184 -0.61903501 -0.212530 0.973162 -0.088243
0.26835299 5.00897217 -0.61441499 -0.254242 0.961474 0.104536
0.22773100 4.99930477 -0.57065898 -0.459331 0.888217 0.009266
0.25457901 5.01213217 -0.58625799 -0.100900 0.986447 -0.129390
0.30841601 5.01206493 -0.58391899 -0.129807 0.847394 0.514854
0.31325001 5.00917292 -0.57932001 -0.106132 0.881603 0.459905
0.33324000 5.00082684 -0.54620397 0.023382 0.992058 0.123590
0.32033399 5.01937199 -0.58766103 -0.132020 0.799535 0.585930
0.32392699 5.00340414 -0.57650697 0.001302 0.904847 0.425734
0.36883500 4.99754000 -0.50817299 0.278513 0.959042 0.051670
0.40689000 4.96021700 -0.52689803 0.918156 0.393496 0.046372
0.34830999 5.00766516 -0.57124603 0.093052 0.950175 0.297503
0.35725501 5.01047087 -0.59462100 0.297288 0.882809 0.363687
0.40906799 4.95408821 -0.62797099 0.919404 0.392157 0.030166
0.38364100 4.86571980 -0.58680999 0.899859 -0.424199 -0.101530
0.38921601 4.88053513 -0.62071502 0.750317 -0.659197 0.049831
0.38562000 4.87980413 -0.61337501 0.765359 -0.643566 0.006920
0.38157299 4.87744617 -0.61356503 0.772829 -0.634577 0.006913
0.36736900 4.81383514 -0.59588802 0.861432 -0.505833 0.045484
0.39613801 4.98089886 -0.61345297 0.847185 0.530352 -0.031683
0.32782099 5.00174379 -0.57253700 0.014323 0.915375 0.402348
0.38619900 4.87827206 -0.60913301 0.775689 -0.630856 -0.018104
0.38134801 4.85097980 -0.57997799 0.958705 -0.276280 -0.067479
0.38128400 4.87399197 -0.60982198 0.865224 -0.499326 -0.045393
0.37920201 4.87414503 -0.61466098 0.865224 -0.499326 -0.045393
0.37593001 4.83611393 -0.56020802 0.909687 -0.414691 0.022380
0.38782901 4.86419392 -0.53705502 0.844770 -0.525283 -0.102178
0.38530400 4.87148285 -0.58623999 0.831187 -0.541951 -0.124167
0.35609999 4.79695511 -0.61007899 0.804653 -0.581056 0.122095
0.33947599 4.77551603 -0.60601598 0.577379 -0.770366 0.270498
0.34462199 4.77954578 -0.61790299 0.747540 -0.640530 0.175802
0.38190100 4.87094498 -0.59817302 0.880923 -0.467513 -0.073526
0.36902201 4.82050085 -0.56875598 0.852975 -0.515191 0.083736
0.30482101 4.79995489 -0.47053000 -0.190206 -0.945555 0.264099
0.38132700 4.87081289 -0.60494399 0.876989 -0.476474 -0.062149
0.38418701 4.99457312 -0.58300602 0.557005 0.826201 0.084482
0.41144499 4.90296412 -0.57802099 0.862520 -0.503712 0.048301
0.41716701 4.93096399 -0.61094099 0.984589 0.094511 0.147150
0.41406101 4.91756582 -0.57718098 0.986180 -0.141222 0.086632
0.40446499 4.88687706 -0.54893601 0.875205 -0.469726 -0.115647
0.41733801 4.90324497 -0.60971302 0.881325 -0.462450 0.096988
0.40406999 4.88869095 -0.59701902 0.748935 -0.662466 0.015341
0.38462901 4.98248386 -0.45151100 0.654854 0.752722 0.067644
0.40082800 4.97588682 -0.55867302 0.781689 0.623407 0.018050
0.39804000 4.97263908 -0.49959400 0.773650 0.631173 0.055566
0.40415001 4.96660519 -0.54777002 0.876628 0.479767 0.036696
0.39145699 4.98656702 -0.53312200 0.653232 0.755700 0.046964
0.37943599 4.99467802 -0.51255798 0.402728 0.913831 0.052181
0.39516199 4.97331715 -0.45703799 0.774999 0.628339 0.067579
0.38812101 4.98901606 -0.51575702 0.652985 0.756901 0.026681
0.37971401 4.98829794 -0.38679501 0.592154 0.804938 -0.037797
0.33576500 5.00179577 -0.44824001 0.257638 0.963943 -0.066609
0.39128900 4.97724915 -0.41278699 0.719460 0.694216 -0.021037
0.40966800 4.96888113 -0.27744401 0.897030 0.435465 -0.075554
0.34839401 5.00471592 -0.40848100 0.292252 0.955195 -0.046811
0.38481501 4.98307180 -0.42222199 0.674348 0.738307 0.012514
0.37704501 4.98936081 -0.43287301 0.562521 0.826590 -0.017880
0.39861700 4.96793985 -0.41251001 0.825500 0.564387 -0.004080
0.38547799 4.99895811 -0.28602901 0.684094 0.699607 -0.206314
0.38591099 4.98207903 -0.39667800 0.676032 0.736861 0.004147
0.38675499 4.98243999 -0.37824300 0.673062 0.736477 -0.067739
0.37309000 5.00904799 -0.28327999 0.549926 0.800879 -0.237011
0.41203699 4.97338295 -0.15572201 0.997596 -0.011563 -0.068328
0.41295999 4.98658085 -0.15539201 0.990232 0.123060 -0.065555
0.40733400 4.98032618 -0.23487400 0.937517 0.329543 -0.111641
0.40727201 5.01266909 -0.13560200 0.841377 0.530714 -0.102116
0.27992100 5.00976706 -0.46687201 -0.077828 0.996839 0.015992
0.28220001 5.01200819 -0.56654698 0.166093 0.983413 0.072890
0.31745401 5.00198603 -0.56322402 0.071188 0.967901 0.241039
0.33006001 5.00699615 -0.35183299 0.127589 0.986133 -0.106126
0.26936999 5.00709391 -0.46483099 -0.286209 0.954462 0.084179
0.22408800 4.98501396 -0.17000200 -0.485331 0.872490 -0.056691
0.29905799 5.01862907 -0.29271701 -0.288192 0.949574 -0.123511
0.31350300 5.02315998 -0.29657701 -0.182622 0.967510 -0.174851
0.32753500 5.02290201 -0.30340499 0.080839 0.958522 -0.273314
0.33903801 5.02536917 -0.29235700 0.186732 0.947289 -0.260334
0.13048400 4.95382309 -0.54677099 -0.862884 0.269366 0.427637
0.12040100 4.94803905 -0.56334502 -0.869605 0.053918 0.490795
0.17164700 4.99944305 -0.61646301 -0.078450 0.955544 0.284220
0.17327800 4.99608707 -0.61100399 -0.094826 0.954752 0.281879
0.25002000 5.02027512 -0.56098598 -0.180943 0.973044 0.142983
0.24186601 4.99467993 -0.45133999 -0.163738 0.983626 0.075296
0.21276000 4.99437380 -0.44552800 -0.238347 0.969444 0.058043
0.23502401 4.99405098 -0.45117900 -0.167319 0.983740 0.065266
0.19480500 4.97095823 -0.32269701 -0.659422 0.732521 0.169043
0.22255599 4.99583721 -0.49088100 -0.216342 0.970377 0.107539
0.23899500 4.99767017 -0.47733200 -0.219286 0.971124 0.093980
0.23811300 5.00272512 -0.54678202 -0.380132 0.921244 0.082520
0.16232599 4.97965813 -0.52430201 -0.626945 0.737490 0.251094
0.18086900 4.98269701 -0.46630001 -0.565725 0.815525 0.121961
0.17543900 4.97933722 -0.47717401 -0.667261 0.725284 0.169487
0.17645700 4.97656202 -0.45449400 -0.701670 0.698665 0.139733
0.21850599 4.99515390 -0.45809001 -0.201390 0.978007 0.054267
0.29321900 5.01142216 -0.51404703 0.151796 0.988360 -0.010120
0.18003100 4.98536587 -0.50162899 -0.495063 0.857232 0.141655
0.17913200 4.98601484 -0.52022898 -0.406796 0.900661 0.152727
0.24878700 5.00859404 -0.53991199 -0.318153 0.935177 0.155633
0.34861100 5.00177002 -0.54179901 0.046919 0.996220 0.073107
0.24385899 4.99562311 -0.44182101 -0.222122 0.973163 0.060132
0.36675701 4.99422407 -0.46257499 0.412519 0.908087 0.072157
0.24962901 5.01446676 -0.55313998 -0.295949 0.944606 0.141894
0.33263099 4.99944019 -0.51209903 0.175423 0.983993 -0.031367
0.34386799 4.99848318 -0.52483797 0.097401 0.994806 0.029549
0.30930901 5.00394011 -0.55327702 0.183665 0.975797 0.118695
0.35293701 5.00412416 -0.56498802 0.075119 0.983703 0.163354
0.34187001 5.01451778 -0.58880299 0.092855 0.849984 0.518561
0.33084300 5.01071405 -0.58043700 -0.017591 0.864674 0.502025
0.33126700 5.00002098 -0.56463301 0.053434 0.965532 0.254741
0.29612899 5.01048994 -0.52797198 0.198782 0.979960 -0.012787
0.27605000 5.01277399 -0.51762903 -0.036280 0.994963 0.093450
0.26007301 5.01140785 -0.51913601 -0.182356 0.974662 0.129536
0.25802600 5.00232410 -0.46624401 -0.271488 0.958573 0.086207
0.25591499 5.00811481 -0.50747299 -0.215735 0.968892 0.121271
0.31406599 5.03460789 -0.22955100 -0.321308 0.939724 -0.116961
0.29386601 5.01059723 -0.35277301 -0.077430 0.990411 -0.114412
0.33271199 5.00707102 -0.42959499 0.199461 0.977964 -0.061652
0.28307801 5.01173782 -0.45000499 -0.052882 0.998536 0.011406
0.34042501 5.00576687 -0.35913000 0.205981 0.971776 -0.114996
0.28371501 5.01165390 -0.33170500 -0.219285 0.972534 -0.078050
0.23372500 4.99239016 -0.36491200 -0.261481 0.965190 -0.006025
0.31877199 5.00965977 -0.40739399 0.073889 0.996962 -0.024630
0.28321600 5.01060486 -0.28438401 -0.398462 0.916595 -0.032876
0.21978700 4.98649120 -0.31913999 -0.530524 0.844594 0.072151
0.30430600 5.02997112 -0.22765800 -0.414512 0.902995 -0.113049
0.22258399 4.99029207 -0.24106100 -0.635920 0.771694 -0.009698
0.22402699 4.99066305 -0.34861401 -0.317587 0.947701 0.031632
0.19015799 4.95827198 -0.13780101 -0.870834 0.463957 -0.162458
0.21459600 4.98399496 -0.31370300 -0.602806 0.793622 0.082398
0.20126200 4.98451710 -0.37804100 -0.454719 0.882355 0.121163
0.22947200 4.99206400 -0.39178601 -0.203641 0.976746 0.067067
0.20768000 4.98745394 -0.37729701 -0.366289 0.927128 0.079161
0.22694901 4.99085522 -0.38038501 -0.249011 0.968374 0.015638
0.18829900 4.98019123 -0.40369001 -0.612964 0.784768 0.091726
0.23764201 4.99222183 -0.40295699 -0.178177 0.982922 0.046019
0.22669800 4.99392080 -0.43597400 -0.140362 0.989384 0.037658
0.23008201 4.99247599 -0.32947499 -0.426629 0.903055 0.049796
0.21654400 4.99314690 -0.42775801 -0.226813 0.972232 0.057623
0.30540100 5.01658201 -0.32619300 -0.092914 0.974982 -0.201934
0.20054200 4.98144722 -0.35525000 -0.526185 0.839845 0.133378
0.24217699 4.99109507 -0.38672501 -0.239918 0.970523 -0.022907
0.27355799 5.00648689 -0.35010400 -0.244526 0.966816 -0.073985
0.31072900 5.02117014 -0.31134301 -0.135613 0.972103 -0.191379
0.22330000 4.98962402 -0.25371099 -0.607985 0.791096 -0.067236
0.27586499 5.00776100 -0.29558301 -0.369392 0.929231 -0.008947
0.23521000 4.99424124 -0.27282599 -0.492803 0.865582 -0.088959
0.20873600 4.98731899 -0.38359201 -0.368686 0.926407 0.076419
0.28616300 5.01397085 -0.25128701 -0.444306 0.890013 -0.102316
0.26523799 5.00985384 -0.22755601 -0.373356 0.927616 0.011547
0.20976900 4.97775698 -0.28613800 -0.688218 0.720364 0.086210
0.24756300 5.00469589 -0.23447099 -0.388499 0.920544 -0.040825
0.24806000 5.00247622 -0.24610101 -0.374466 0.923321 -0.085167
0.27465999 5.00534201 -0.15114599 -0.569452 0.821932 -0.012350
0.21453799 4.98242617 -0.15325101 -0.544185 0.828746 -0.130546
0.25845599 4.99649811 -0.17878400 -0.426595 0.899046 0.098659
0.27996901 5.01375389 -0.18692499 -0.549769 0.829703 0.096678
0.25223100 4.99015999 -0.16371100 -0.370249 0.928826 0.014093
0.23308100 4.99332619 -0.13436399 -0.352813 0.925614 -0.136974
0.21919399 4.99160099 -0.10859100 -0.497538 0.842337 -0.207182
0.20380200 4.98245287 -0.11129800 -0.667952 0.730995 -0.139594
0.19810700 4.98342419 -0.07940800 -0.782806 0.612439 -0.110151
0.22982500 4.98960018 -0.18499500 -0.437510 0.887929 0.142011
0.26445699 5.00203991 -0.17979400 -0.470370 0.873134 0.128021
0.19197500 4.99152708 0.01893900 -0.870133 0.492401 0.020236
0.27806401 5.01692200 -0.09979700 -0.537150 0.830141 -0.149455
0.27775601 5.01067209 -0.24354400 -0.402889 0.907546 -0.118497
0.39950401 5.01439714 -0.18267800 0.812361 0.565831 -0.141086
0.31594801 5.02975082 -0.26376900 -0.217537 0.961120 -0.170075
0.40863299 4.99111986 -0.20025000 0.952418 0.274966 -0.131505
0.39724100 5.01167202 -0.20268001 0.789592 0.590307 -0.167581
0.28894901 5.01688194 -0.15918100 -0.589498 0.807627 0.015186
0.32327601 5.05670023 -0.06424000 -0.299990 0.893999 -0.332824
0.36150801 5.04186010 -0.17786200 0.200090 0.972763 -0.117034
0.34007600 5.04291916 -0.18478300 0.003074 0.998932 -0.046105
0.35973600 5.03952503 -0.19362900 0.209365 0.970691 -0.118006
0.35468701 5.03385401 -0.23508900 0.245898 0.949627 -0.194273
0.29959801 5.02137280 -0.26547799 -0.404804 0.904110 -0.136815
0.33030200 5.03866291 -0.22225800 -0.089016 0.986302 -0.138866
0.34179699 5.05634594 -0.07923300 -0.148186 0.951860 -0.268336
0.29816800 5.02688122 -0.18453100 -0.537541 0.842743 0.028870
0.36177200 5.04982805 -0.11748100 0.129536 0.974662 -0.182356
0.38542899 5.05537796 -0.06496800 0.544471 0.806681 -0.229819
0.32886600 5.04021120 -0.21038701 -0.112819 0.989779 -0.087231
0.28699800 5.04708719 -0.01616400 -0.588770 0.707513 -0.390864
0.31072700 5.04069901 -0.08947900 -0.455345 0.844318 -0.282468
0.26769701 5.02686024 -0.03513600 -0.199867 0.941444 -0.271544
0.31769100 5.06499004 -0.03614000 -0.488105 0.820832 -0.296629
0.36812699 5.06589890 -0.05245500 0.194271 0.941044 -0.276940
0.37761801 5.07521009 -0.00387100 0.538740 0.822446 -0.182598
0.33101901 5.06346416 -0.05293300 -0.211794 0.922513 -0.322666
0.24975801 5.04205322 0.02210700 -0.586448 0.705390 -0.398124
0.39793399 4.86548996 0.06308400 0.677139 -0.734161 0.049894
0.25317299 5.03972101 0.01160300 -0.554268 0.731897 -0.396376
0.21863100 5.00683498 -0.05955900 -0.532509 0.804229 -0.263912
0.26231599 5.05576706 0.02439100 -0.488898 0.745692 -0.452683
0.36339101 5.09052181 0.05331400 0.197967 0.963612 -0.179612
0.30011600 5.05691910 -0.02670300 -0.561301 0.755411 -0.338075
0.24750499 5.04623699 0.17806800 -0.781279 0.535232 0.321139
0.23273399 5.02484703 0.00971800 -0.542719 0.838494 -0.048831
0.40583900 4.87919998 0.00415600 0.861772 -0.492235 0.122698
0.39923400 4.87044621 0.08190900 0.704229 -0.709807 0.015340
0.40759200 4.88003683 0.07784300 0.829348 -0.557975 -0.029076
0.40683499 4.87821007 0.09128200 0.781002 -0.624527 0.001373
0.18645200 4.97056580 -0.00716300 -0.984782 0.170510 -0.033638
0.25894099 5.02893877 -0.01558500 -0.333154 0.905535 -0.262708
0.21011899 5.01293802 -0.00139600 -0.652933 0.756841 0.029487
0.19361100 4.94400501 0.10641200 -0.960937 -0.093656 0.260441
0.22328500 5.03151894 0.04899500 -0.862308 0.476112 -0.172462
0.23617600 5.01546478 -0.06012200 -0.283284 0.905628 -0.315575
0.21639600 5.00967312 0.03555900 -0.763113 0.645926 0.020926
0.20662300 5.01086903 -0.01097000 -0.668868 0.742401 -0.038181
0.22012401 5.03095102 0.09511400 -0.930896 0.346538 0.115513
0.21258099 5.00045395 0.07642100 -0.826496 0.561683 0.037631
0.18826100 4.97757483 0.07015500 -0.901327 0.411752 0.134421
0.19728900 4.99815702 0.02400500 -0.757771 0.647233 0.082904
0.21492100 5.01534081 -0.02294100 -0.602301 0.788763 -0.122828
0.21743800 5.00973797 0.09902300 -0.871225 0.485257 0.074117
0.21442300 4.99675512 -0.08560500 -0.605592 0.768932 -0.204946
0.21768200 5.01525402 -0.03316800 -0.560562 0.808357 -0.179803
0.19120400 4.97857523 0.08412600 -0.901274 0.414783 0.125138
0.18525000 4.97141790 0.05585600 -0.971709 0.218853 0.088792
0.20590299 4.91629410 0.10163300 -0.867796 -0.476636 0.140528
0.20261601 4.92927408 0.12058800 -0.921636 -0.318643 0.221479
0.18522500 4.97280216 -0.02176800 -0.971219 0.237088 -0.022866
0.19560499 4.99091816 0.06221700 -0.786907 0.608794 0.100736
0.18493900 4.96757793 0.07134500 -0.982311 0.147286 0.115638
0.21529400 5.00379181 0.07744700 -0.834049 0.549999 0.043164
0.19864100 4.99772787 0.03346100 -0.739460 0.665955 0.098497
0.19258200 4.98840618 0.05585100 -0.815763 0.568562 0.106151
0.21711600 5.00608206 0.05541700 -0.826546 0.562491 0.020629
0.20693301 4.99940920 -0.05521100 -0.675921 0.701014 -0.227398
0.19413599 4.99433184 0.00297500 -0.849317 0.527585 -0.017723
0.23248400 5.05003977 0.11136200 -0.834506 0.501924 0.227315
0.20243700 4.99278593 0.11124800 -0.868079 0.471243 0.156108
0.20788901 5.00853014 0.02112600 -0.691446 0.717648 0.082973
0.24632500 5.02331495 -0.04866400 -0.213974 0.942864 -0.255388
0.23960400 5.02361012 -0.03947500 -0.268283 0.938294 -0.218240
0.21916100 5.01575422 0.09811700 -0.887691 0.450156 0.096763
0.22075200 5.01967096 0.01133400 -0.614677 0.788720 -0.009669
0.20395200 4.99451590 0.07886500 -0.812307 0.580623 0.055096
0.21540099 5.00578213 0.09325000 -0.842867 0.535353 0.054514
0.23285100 5.03493309 0.13034999 -0.865818 0.473197 0.162616
0.22751901 5.04712820 0.09817000 -0.845972 0.494360 0.199848
0.24662100 5.06926584 0.09135800 -0.616661 0.780714 0.101068
0.25356501 5.06473684 0.13124301 -0.723774 0.682500 0.101712
0.24969099 5.06886005 0.10301700 -0.623965 0.772176 0.120050
0.24461000 5.05962706 0.11750400 -0.698278 0.692139 0.182626
0.27804500 5.06223106 0.01475100 -0.478310 0.779888 -0.403726
0.26251200 5.07805395 0.08357000 -0.281989 0.953517 -0.106238
0.32281101 5.08349180 0.01634100 -0.244946 0.930230 -0.273264
0.29296601 5.06386805 0.00010800 -0.492786 0.794557 -0.354742
0.34570101 5.09593201 0.04799200 -0.117794 0.961768 -0.247238
0.24065100 5.05826807 0.04777400 -0.621807 0.690715 -0.369147
0.34867701 5.09255123 0.03756500 -0.069694 0.961772 -0.264836
0.31262699 5.03412485 -0.16780201 -0.442187 0.896397 -0.030726
0.38116601 5.06802702 -0.02581500 0.560284 0.806262 -0.189798
0.33534300 5.07191801 -0.03015700 -0.162099 0.943988 -0.287419
0.36388999 5.07215118 -0.03511400 0.162969 0.949529 -0.268023
0.27616599 5.05335617 0.00351700 -0.524851 0.738740 -0.422842
0.32274801 5.07385778 -0.01484200 -0.275606 0.919167 -0.281378
0.31358400 5.08130407 0.02492700 -0.351169 0.917020 -0.189091
0.27448800 5.06304884 0.02496200 -0.412816 0.827214 -0.381183
0.33662000 5.09535408 0.05088000 -0.162407 0.959919 -0.228426
0.30904201 5.08405209 0.07351500 -0.444373 0.872397 -0.203609
0.29480699 5.07421684 0.05256300 -0.309154 0.943523 -0.119111
0.27839801 5.08518219 0.11051300 -0.345250 0.933652 -0.095380
0.37141100 5.09478712 0.08785100 0.359926 0.914753 -0.183520
0.34893301 5.10206318 0.07334000 0.131183 0.962442 -0.237688
0.34034300 5.08947277 0.02222300 -0.116933 0.955175 -0.271969
0.33965099 5.09196281 0.03636100 -0.156735 0.952468 -0.261225
0.45218301 4.96980619 0.12391500 0.909138 -0.331259 -0.252457
0.43762499 5.05446100 0.22110000 0.618690 0.780970 -0.085487
0.33430800 5.10610199 0.09211300 -0.252045 0.933552 -0.254861
0.33667701 5.10436916 0.08508100 -0.205892 0.947649 -0.244071
0.41424099 5.08488894 0.14393000 0.760496 0.611196 -0.219284
0.41398901 5.09195995 0.17167100 0.757762 0.647647 -0.079688
0.41487899 5.01042223 -0.08826500 0.944203 0.325898 -0.047661
0.36335999 5.09581518 0.07012000 0.269875 0.943879 -0.190420
0.37598801 5.07957220 0.01649700 0.457179 0.878303 -0.139894
0.42596799 4.95348406 -0.06234500 0.973647 0.098487 -0.205700
0.43069601 4.99429512 0.04369700 0.962511 0.235744 -0.134152
0.41914099 4.93183517 -0.10836900 0.980131 0.165604 -0.109176
0.42351300 4.97032118 -0.05198700 0.976528 0.133788 -0.168798
0.41627899 4.99445009 -0.12330500 0.981817 0.163838 -0.095876
0.41366801 5.02757311 -0.02138900 0.893464 0.418676 -0.162579
0.40705800 5.00673199 -0.15889201 0.907886 0.406123 -0.103956
0.40016899 4.99012804 -0.25264099 0.833509 0.537606 -0.127443
0.40161499 4.98400116 -0.27176401 0.805842 0.573474 -0.147465
0.41149399 4.99822617 -0.17823499 0.918451 0.383484 -0.096895
0.39671800 5.00593901 -0.22280200 0.822740 0.534856 -0.192427
0.40178400 5.00649691 -0.19612201 0.864545 0.467121 -0.185365
0.36564600 5.03428507 -0.21293101 0.350547 0.923153 -0.157816
0.41821301 4.95720100 -0.08464000 0.982700 0.055714 -0.176625
0.42087299 4.95601416 -0.07096300 0.970363 0.099428 -0.220251
0.37605500 5.03057003 -0.20083500 0.515441 0.843315 -0.152122
0.34617299 5.04835892 -0.12466200 -0.067656 0.983973 -0.164985
0.39912501 5.01528788 -0.16947600 0.793490 0.594747 -0.129035
0.36331400 5.04547977 -0.14007400 0.244324 0.960310 -0.134574
0.30994001 5.05655384 -0.05073600 -0.526428 0.798336 -0.292460
0.43196699 4.97526598 0.00319100 0.976553 0.170866 -0.130955
0.42317501 5.00029612 -0.02783700 0.967254 0.219655 -0.127169
0.38508299 5.07020807 0.00088700 0.609512 0.778068 -0.152002
0.40028399 5.04687500 -0.02553400 0.750535 0.641366 -0.159204
0.39028999 5.06303787 -0.01713700 0.616317 0.768494 -0.171960
0.38934100 5.05451012 -0.05025100 0.627218 0.751113 -0.205975
0.32211301 5.08840084 0.04467300 -0.320731 0.931647 -0.170779
0.40319300 5.06004715 0.04404600 0.733836 0.661209 -0.155846
0.42774400 4.97272301 -0.03282500 0.980134 0.136506 -0.143884
0.39495200 4.85766220 -0.00223600 0.782314 -0.596989 0.177730
0.42007601 4.98342180 -0.07885800 0.985589 0.113492 -0.125439
0.42664501 4.98661280 -0.00917900 0.979495 0.165912 -0.114295
0.42229500 5.03356695 0.04309800 0.922394 0.349583 -0.164262
0.42643499 5.04037189 0.08697300 0.887460 0.448652 -0.105483
0.42143300 5.04342699 0.06845100 0.890115 0.425582 -0.163019
0.43777701 5.04515219 0.18689699 0.619073 0.758017 -0.205328
0.43230000 5.04908323 0.18155999 0.636202 0.749645 -0.182429
0.40688601 5.07380295 0.09847200 0.724464 0.628509 -0.283069
0.42392299 5.00858879 -0.00616300 0.941440 0.317385 -0.113830
0.42736000 4.92178583 0.03621800 0.921697 -0.384812 -0.048928
0.43248999 4.95269489 -0.00991200 0.997319 -0.054869 -0.048414
0.43158299 4.93335009 -0.03785300 0.995025 -0.051905 -0.085035
0.40160301 4.86779881 -0.00944400 0.825884 -0.528869 0.195484
0.42961100 4.96657801 -0.01438900 0.992402 0.076164 -0.096626
0.42390901 4.91201878 -0.07271300 0.991534 -0.055781 -0.117254
0.43343300 4.95605183 -0.03902500 0.983767 0.104759 -0.145699
0.43172401 4.95330286 -0.03864800 0.989175 0.077879 -0.124373
0.43447399 4.95427799 -0.00195900 0.994598 -0.034145 -0.098028
0.42950100 4.94905710 -0.04574600 0.982979 0.097695 -0.155588
0.42978400 4.94772387 -0.03532800 0.996331 0.001057 -0.085581
0.43282899 4.92975521 -0.04094500 0.990213 -0.091493 -0.105391
0.43957400 4.95102882 0.03292900 0.977995 -0.162792 -0.130482
0.44347799 4.95836687 0.06412500 0.988302 -0.127788 -0.083238
0.40980399 4.87357903 -0.03575800 0.904703 -0.399092 0.149127
0.43734199 4.94729614 0.02180700 0.969720 -0.198556 -0.142191
0.42983600 4.94069290 -0.03594700 0.996124 -0.013939 -0.086853
0.43186599 4.93818378 -0.02824400 0.996207 -0.086487 -0.009610
0.42325601 4.91518688 -0.02093200 0.942869 -0.316068 0.105356
0.47049600 5.01179504 0.16558200 0.897580 0.301171 -0.321942
0.43126300 4.92360401 -0.05320500 0.987483 -0.073798 -0.139396
0.43114701 4.92237091 -0.04980300 0.982599 -0.093063 -0.160745
0.35667601 4.84855986 0.11002700 0.351181 -0.936056 -0.021709
0.41827601 4.90259123 0.02294600 0.919785 -0.390810 -0.035528
0.41430101 4.88827801 0.10771100 0.843658 -0.536374 -0.023321
0.42776701 4.92317677 0.10199800 0.927993 -0.370937 -0.035141
0.40862599 4.86318588 -0.04313400 0.843168 -0.521683 0.130055
0.39310500 4.84430313 -0.06364400 0.661519 -0.747617 0.058834
0.32975900 4.82471418 0.04000600 0.170661 -0.952748 0.251289
0.33290499 4.82582378 0.05042500 0.236810 -0.928807 0.285023
0.34757200 4.84705019 0.07305100 0.368427 -0.890490 0.266998
0.39376000 4.84598017 -0.03644700 0.691032 -0.714707 0.108020
0.40664500 4.86001921 -0.03465600 0.843315 -0.515441 0.152122
0.40536600 4.85629177 -0.05593000 0.761264 -0.641449 0.094975
0.35015699 4.82479095 -0.13347299 0.299217 -0.949916 -0.090157
0.34249601 4.82580185 0.04529900 0.308060 -0.909580 0.278860
0.34042901 4.82698202 0.03791700 0.294939 -0.919346 0.260410
0.35321501 4.82070208 -0.01447300 0.439044 -0.890793 0.117172
0.36691600 4.84765911 0.05806600 0.473380 -0.847822 0.238973
0.35947499 4.84652710 0.05980100 0.431914 -0.849895 0.301875
0.37738100 4.84984779 0.04479800 0.549074 -0.809081 0.209535
0.34770399 4.84602785 0.09034400 0.367107 -0.923910 0.107812
0.27588400 4.83413076 0.04155500 -0.374777 -0.904386 0.204029
0.39401099 4.86338377 0.06851800 0.637854 -0.768550 0.049721
0.21551999 4.88385391 -0.07277300 -0.787188 -0.572924 0.228238
0.38735601 4.85679102 0.02540500 0.717161 -0.687465 0.114330
0.40443099 4.87341976 -0.00494000 0.852050 -0.487952 0.189510
0.40028799 4.85436201 -0.01740700 0.787161 -0.585403 0.194115
0.40949601 4.95408392 -0.14699200 0.991596 -0.018919 -0.127984
0.42453799 4.92821884 0.00130100 0.963467 -0.266334 -0.028229
0.41410899 4.85916519 -0.10536400 0.810216 -0.581583 0.072877
0.32349500 4.82551479 0.04525100 0.123589 -0.961390 0.245876
0.43133199 4.92925596 -0.03393400 0.991134 -0.132077 -0.014429
0.22157000 4.87402821 -0.08146500 -0.792682 -0.543689 0.275784
0.22655500 4.87037706 -0.07883200 -0.806660 -0.528932 0.263686
0.20152800 4.88578081 -0.10144200 -0.822060 -0.501938 0.268840
0.41682699 4.93076515 -0.24247600 0.982706 0.173138 0.065673
0.42209300 4.86720896 -0.12879799 0.917205 -0.397934 0.019571
0.42239901 4.91250992 -0.09169300 0.998957 -0.011317 -0.044238
0.42535400 4.88622713 -0.18210199 0.996331 -0.085581 0.001057
0.42599401 4.89539623 -0.16043299 0.995400 0.094028 -0.018373
0.42394701 4.88499594 -0.22842599 0.972825 -0.198098 -0.119868
0.41212201 4.99279690 -0.18633100 0.959734 0.249400 -0.129270
0.41119701 4.97784901 -0.19597900 0.980227 0.165207 -0.108914
0.42118999 4.89740801 -0.25519601 0.992560 -0.057589 -0.107273
0.42466000 4.89708185 -0.18390401 0.999388 0.021481 -0.027619
0.24883699 4.83820295 -0.02019400 -0.658195 -0.748279 0.082819
0.27015901 4.81439495 -0.11492700 -0.270783 -0.957457 0.099762
0.28735900 4.80954123 -0.13134600 -0.153581 -0.987309 0.040416
0.37257800 4.83225822 -0.20572700 0.319200 -0.947587 0.013769
0.37911299 4.82998514 -0.24033201 0.408698 -0.910465 0.063395
0.42133000 4.86590481 -0.14414500 0.917112 -0.398576 -0.006449
0.40529600 4.84499788 -0.12473000 0.673146 -0.734474 0.086151
0.38188800 4.83453798 -0.20279101 0.389255 -0.921108 -0.006423
0.41665399 4.86834478 -0.07373300 0.886050 -0.442309 0.138848
0.41620100 4.86577511 -0.07903100 0.885614 -0.444953 0.133057
0.40767801 4.84524584 -0.16871500 0.668078 -0.743710 -0.023810
0.41171101 4.85553789 -0.23247799 0.821697 -0.562668 -0.090660
0.40608099 4.84870577 -0.22129700 0.690212 -0.723542 -0.009721
0.40223601 4.84547091 -0.23363400 0.679996 -0.733055 -0.015359
0.41568601 4.85478210 -0.16652501 0.747722 -0.662914 -0.038164
0.41345999 4.85405016 -0.12221400 0.787552 -0.613176 0.061460
0.42566499 4.89610195 -0.11478800 0.994482 -0.050002 0.092226
0.42389101 4.89064217 -0.23171499 0.992496 -0.062243 -0.105248
0.42254800 4.87380981 -0.11216700 0.949677 -0.306222 0.065896
0.42624700 4.88913393 -0.13812999 0.989260 -0.132748 0.061179
0.42479199 4.90498877 -0.14580400 0.995717 0.092452 -0.001063
0.41329801 4.95364285 -0.13242400 0.988796 -0.010078 -0.148935
0.41233599 4.93903112 -0.22089399 0.976445 0.207419 0.059436
0.41015601 4.96695900 -0.20676801 0.993440 0.097660 -0.059494
0.42313501 4.92882299 -0.07729900 0.987305 0.005629 -0.158734
0.39693499 5.00215006 -0.23852600 0.820648 0.548593 -0.159944
0.40982601 4.94687796 -0.17563500 0.996101 0.085257 0.022663
0.42291799 4.92772722 -0.31994599 0.995981 0.088793 -0.011768
0.42225999 4.92310810 -0.32795700 0.999686 0.001001 -0.025017
0.41964501 4.91969109 -0.24917500 0.991665 0.124660 -0.032569
0.39436400 4.83901691 -0.27422401 0.699631 -0.713765 -0.032508
0.39739400 4.85080194 -0.36329401 0.827260 -0.556728 -0.075464
0.40664199 4.86889505 -0.28326100 0.897951 -0.419987 -0.131511
0.42189199 4.92602205 -0.30786300 0.999343 -0.017424 0.031774
0.41865799 4.94264603 -0.31430000 0.968894 0.246164 -0.025465
0.42225501 4.91915607 -0.34718001 0.999134 0.011295 -0.040048
0.39849800 4.97980595 -0.30795300 0.788070 0.606770 -0.103809
0.40199199 4.97390079 -0.33125600 0.793622 0.602806 -0.082398
0.42184499 4.92236423 -0.29245600 0.998497 0.003098 0.054726
0.41977099 4.90477085 -0.30506700 0.976228 -0.216021 -0.017707
0.38765001 4.83338499 -0.25044000 0.576396 -0.816907 0.020734
0.41680700 4.94439983 -0.33767501 0.948387 0.308323 -0.074154
0.41985601 4.90169477 -0.34461701 0.977464 -0.210549 0.015291
0.41990599 4.92370892 -0.38610300 0.981464 0.178994 -0.068474
0.40720499 4.95807600 -0.51168901 0.920748 0.388993 0.030124
0.39700899 4.96865892 -0.42015100 0.827633 0.561268 -0.001359
0.40164301 4.87334681 -0.46016499 0.888565 -0.458313 -0.020043
0.41144699 4.93260384 -0.54140502 0.996039 0.088608 -0.007473
0.41136500 4.93665695 -0.47890499 0.970886 0.235699 0.042743
0.40838099 4.94189596 -0.44782600 0.943832 0.330404 0.003740
0.39642999 4.98249292 -0.55684799 0.701550 0.712619 0.001384
0.40815300 4.89699697 -0.55519903 0.896990 -0.441164 -0.027989
0.41048601 4.90484381 -0.50717598 0.977107 -0.210655 -0.029754
0.41302401 4.90129280 -0.43683100 0.982014 -0.171883 -0.078128
0.41645899 4.92243004 -0.41080499 0.974406 0.152527 -0.165132
0.41305000 4.90357113 -0.42818001 0.991534 -0.114977 -0.060334
0.40444201 4.87105799 -0.41242999 0.897179 -0.434119 -0.081311
0.40906399 4.87604284 -0.29265499 0.921696 -0.380788 -0.074005
0.41344801 4.89129400 -0.41720000 0.951394 -0.299009 -0.073782
0.37444001 4.82767391 -0.58949703 0.920341 -0.390329 0.024804
0.40940499 4.89291286 -0.47702599 0.967198 -0.252472 -0.028052
0.38420901 4.86187792 -0.56995499 0.921482 -0.375419 -0.099657
0.36934999 4.82024813 -0.46261999 0.735580 -0.675591 -0.049991
0.40178201 4.87145901 -0.50518101 0.862661 -0.498395 -0.086125
0.38080701 4.85162497 -0.52325898 0.830427 -0.553146 -0.066491
0.37055799 4.82163715 -0.41287401 0.539133 -0.839123 0.072167
0.28987601 4.81295919 -0.44227099 -0.293961 -0.934824 0.199225
0.34805599 4.80520582 -0.44912699 0.403407 -0.910076 0.095000
0.40607700 4.88046980 -0.51265597 0.863786 -0.497417 -0.080319
0.40012801 4.85554409 -0.34598801 0.867461 -0.497416 0.009385
0.40531200 4.86763716 -0.30630600 0.912495 -0.408325 -0.024946
0.39431101 4.84771299 -0.30517900 0.837737 -0.545150 -0.031743
0.41973200 4.89964199 -0.32988000 0.964781 -0.262235 0.020735
0.42138600 4.90817404 -0.31955400 0.989628 -0.142659 -0.016850
0.40212101 4.85422277 -0.27606899 0.827312 -0.551057 -0.109048
0.40300399 4.84915876 -0.26265699 0.793113 -0.599599 -0.107019
0.39627001 4.84678411 -0.27972201 0.788116 -0.606131 -0.107137
0.39326599 4.84360600 -0.28556401 0.792316 -0.606058 -0.070205
0.29046699 4.80819416 -0.21766800 0.146423 -0.989191 -0.007824
0.40181100 4.86637115 -0.42876399 0.895234 -0.440077 -0.069919
0.42000699 4.90712214 -0.36391801 0.987754 -0.147063 -0.052109
0.42106399 4.91155720 -0.27790201 0.989239 -0.146100 0.007807
0.41879401 4.90064621 -0.28645200 0.973919 -0.224566 -0.032424
0.40764299 4.88422298 -0.44610101 0.929058 -0.357330 -0.095738
0.41054100 4.86441803 -0.26703501 0.891429 -0.426336 -0.153596
0.38380501 4.84208822 -0.45401999 0.829545 -0.554448 -0.066647
0.34633601 4.81383705 -0.37065199 0.053582 -0.996184 0.068891
0.35163799 4.81429386 -0.38997900 0.239756 -0.967809 0.076571
0.35347101 4.81297016 -0.40186900 0.284498 -0.951415 0.117769
0.37229499 4.82082415 -0.33507299 0.393455 -0.918934 0.027450
0.35715199 4.81589413 -0.35532901 0.223046 -0.974486 0.025048
0.35048899 4.81529713 -0.34863999 0.115982 -0.993030 0.020987
0.35181701 4.81412315 -0.37915301 0.178540 -0.980147 0.086233
0.33476299 4.82368422 -0.27588800 0.106377 -0.991711 0.072062
0.31565899 4.82041597 -0.36206499 -0.129071 -0.990302 0.051400
0.29057899 4.82164097 -0.37722501 -0.113763 -0.992327 0.048434
0.29009101 4.82163286 -0.37526500 -0.065615 -0.997135 0.037648
0.30785301 4.82060099 -0.37836400 -0.168692 -0.972834 0.158545
0.32436901 4.80111122 -0.44148800 0.003475 -0.978752 0.205017
0.34899500 4.80710983 -0.43128401 0.384578 -0.916647 0.108895
0.29879799 4.81184292 -0.42916000 -0.278032 -0.943667 0.179420
0.30589601 4.80625105 -0.44560099 -0.260691 -0.942074 0.211036
0.33049700 4.80439615 -0.42077199 0.017452 -0.980788 0.194296
0.30579200 4.81178808 -0.41545299 -0.234657 -0.950837 0.202104
0.26929799 4.81605816 -0.45894900 -0.316862 -0.928052 0.195750
0.34618500 4.80211020 -0.46590799 0.372861 -0.921908 0.105166
0.36485201 4.82619715 -0.50742602 0.808581 -0.587167 -0.037837
0.38708001 4.84863615 -0.44659400 0.849674 -0.522768 -0.069045
0.36034799 4.81402922 -0.42802000 0.467216 -0.879713 0.088392
0.36179000 4.82053995 -0.51587498 0.796070 -0.605013 -0.015229
0.36757699 4.82291222 -0.54953903 0.847923 -0.521909 0.092943
0.35828799 4.80998707 -0.46767700 0.604985 -0.796033 0.017997
0.34101501 4.78461218 -0.57396102 0.538569 -0.816244 0.209020
0.37071499 4.83374596 -0.49886200 0.812713 -0.575972 -0.088056
0.26446700 4.78416920 -0.56505400 -0.580892 -0.767664 0.270661
0.35463199 4.80377388 -0.55692899 0.752600 -0.644872 0.133164
0.31318301 4.78212118 -0.52728999 0.058980 -0.962503 0.264782
0.32978001 4.79254484 -0.48669600 0.222502 -0.964175 0.144431
0.32509300 4.78920412 -0.51148999 0.218493 -0.955737 0.197045
0.34234199 4.79753399 -0.49534899 0.499590 -0.864193 0.059839
0.29400799 4.79923582 -0.48193601 -0.280854 -0.920338 0.272213
0.32437700 4.80199194 -0.43173799 -0.005690 -0.984306 0.176379
0.32881400 4.80038500 -0.44351900 0.039047 -0.980910 0.190502
0.33743301 4.79869080 -0.46322799 0.316786 -0.936644 0.149479
0.33767200 4.80837393 -0.40448299 0.135076 -0.973303 0.185571
0.32549101 4.79808092 -0.45509100 0.024518 -0.981869 0.187968
0.38366899 4.82839680 -0.29588500 0.543477 -0.839173 0.020534
0.42075700 4.87163782 -0.21613100 0.916964 -0.397131 -0.038262
0.32593799 4.81013298 -0.07790300 0.164797 -0.985274 0.045582
0.23486701 4.85999823 -0.05792500 -0.873988 -0.467951 0.131026
0.36319599 4.82350922 -0.04745400 0.501999 -0.864630 0.020296
0.27533001 4.82814598 0.02963300 -0.401268 -0.896696 0.186872
0.37042800 4.84031582 0.00983400 0.608179 -0.777202 0.161477
0.37083200 4.84015083 0.01904900 0.598411 -0.781131 0.178153
0.33092901 4.82220411 -0.18337101 0.338999 -0.940243 -0.031981
0.41514200 4.85566711 -0.13464400 0.783552 -0.619783 0.043766
0.37585500 4.83092880 -0.10530200 0.393482 -0.918997 0.024838
0.37577000 4.84647512 0.03867800 0.564205 -0.807941 0.170014
0.37648800 4.83408594 -0.01734700 0.585698 -0.799219 0.134933
0.39578500 4.84052086 -0.10858000 0.575088 -0.812655 0.094158
0.34197000 4.83107615 0.05617700 0.334282 -0.895875 0.292682
0.37237701 4.82875586 -0.12009800 0.345470 -0.938422 0.003769
0.38434201 4.83227301 -0.12010400 0.441196 -0.897054 0.025325
0.38700601 4.83326387 -0.15010899 0.385249 -0.922805 -0.003840
0.37768501 4.82531404 -0.29579499 0.439081 -0.895944 0.067025
0.36744100 4.82161617 -0.29558200 0.320229 -0.942084 0.099656
0.40068200 4.84142399 -0.18305700 0.566275 -0.821738 -0.063866
0.35537401 4.82848310 -0.18028000 0.226565 -0.973874 -0.015421
0.37294501 4.82416296 -0.27601299 0.367006 -0.927525 0.070732
0.35526401 4.82100582 -0.28992900 0.166785 -0.982710 0.080393
0.35345599 4.82677317 -0.23408100 0.182084 -0.981824 0.053554
0.32217199 4.81991100 -0.33136600 -0.071369 -0.995877 0.055997
0.36478800 4.81970406 -0.36756599 0.424983 -0.904588 -0.033306
0.24871600 4.81140089 -0.27045301 -0.288538 -0.956333 -0.046620
0.29852399 4.80779219 -0.16718000 0.189232 -0.981420 -0.031735
0.18506800 4.89264917 -0.20057100 -0.985612 -0.137056 0.098919
0.32298499 4.81929016 -0.21521400 0.286558 -0.957277 -0.038792
0.38126799 4.83365679 -0.16968100 0.334363 -0.942066 -0.026698
0.35011500 4.82557106 0.02079900 0.377530 -0.910346 0.169532
0.38113400 4.83617020 -0.03842300 0.602660 -0.793430 0.085268
0.31735301 4.82404900 0.04003200 0.092183 -0.968556 0.231090
0.33923599 4.82566690 0.04964100 0.281378 -0.919167 0.275606
0.33850199 4.84111309 0.08549300 0.367576 -0.905138 0.213572
0.33800301 4.84181023 0.07663500 0.342114 -0.903004 0.259889
0.29504901 4.82868290 0.04871300 -0.133058 -0.971959 0.193885
0.33706701 4.83110714 0.05989300 0.292664 -0.904464 0.310312
0.29910800 4.83651304 0.11930900 -0.178191 -0.970434 0.162807
0.36132601 4.83749294 0.04815600 0.468584 -0.843451 0.262714
0.35270900 4.82208681 -0.00329200 0.414382 -0.893737 0.171817
0.32801801 4.82861185 0.05331500 0.189690 -0.937372 0.292150
0.30300799 4.81916094 -0.00505000 -0.191057 -0.975267 0.111138
0.31028000 4.81695890 -0.00560800 -0.102439 -0.987886 0.116568
0.30828601 4.82450008 0.02397300 -0.081215 -0.980639 0.178188
0.32310000 4.81239700 -0.03564800 0.018088 -0.996978 0.075545
0.32438901 4.81683683 0.00268500 0.033524 -0.986057 0.162994
0.33897299 4.81397009 -0.03464800 0.191738 -0.978231 0.079382
0.30516601 4.81483984 -0.04505700 -0.166237 -0.981649 0.093433
0.24398801 4.81447220 -0.27890599 -0.342243 -0.938240 -0.050751
0.26723799 4.80684996 -0.23081300 -0.110582 -0.993007 -0.041329
0.30359900 4.80702400 -0.10759300 0.027126 -0.999632 0.001005
0.25074300 4.80966616 -0.20816100 -0.296222 -0.954213 0.041597
0.35656801 4.81944084 -0.29957700 0.174001 -0.978602 0.109830
0.31592000 4.81931210 -0.23366700 0.268196 -0.962786 -0.033370
0.32211500 4.81816292 -0.28714001 0.175837 -0.982055 0.068182
0.27353400 4.80615187 -0.23979500 -0.015774 -0.997949 -0.062043
0.23205701 4.82152700 -0.28757900 -0.434578 -0.899910 -0.036103
0.24951801 4.81108618 -0.23251501 -0.299695 -0.953801 -0.021140
0.23920500 4.83185005 -0.09603600 -0.718521 -0.679191 0.149755
0.27731201 4.80687904 -0.23008400 0.060442 -0.997820 -0.026510
0.28101501 4.80606699 -0.20444199 0.052558 -0.998605 0.005153
0.29451999 4.80783176 -0.19839400 0.198248 -0.979369 -0.039175
0.24063100 4.84918022 -0.02821200 -0.789603 -0.612259 0.040817
0.24238101 4.82066298 -0.14206600 -0.535316 -0.834506 0.130529
0.28151000 4.83903217 0.10397800 -0.327870 -0.937736 0.114687
0.30352399 4.81568813 -0.23557900 0.271288 -0.961386 -0.046257
0.28789699 4.80696392 -0.15143000 -0.030935 -0.997401 0.065071
0.30951899 4.80946207 -0.13808700 0.226001 -0.971926 -0.065454
0.25423500 4.83550119 -0.00326400 -0.625770 -0.770748 0.119828
0.28098199 4.82379913 -0.02601400 -0.311766 -0.943327 0.113734
0.25867799 4.83465910 0.01996400 -0.557118 -0.810765 0.179667
0.26552501 4.83059597 0.01735100 -0.513834 -0.842569 0.161406
0.27029100 4.82766581 0.00599200 -0.423384 -0.896328 0.131688
0.25451401 4.83101797 -0.02649100 -0.582524 -0.808017 0.088174
0.25466400 4.84852886 0.05408500 -0.671483 -0.725806 0.149386
0.25372401 4.83810997 0.01450500 -0.645432 -0.745664 0.165534
0.26891801 4.82892704 -0.01196000 -0.444815 -0.891025 0.090636
0.25088701 4.82946920 -0.04586000 -0.624851 -0.766383 0.149061
0.29982299 4.81365490 -0.24422300 0.247293 -0.968462 -0.030455
0.27702501 4.81300592 -0.09492200 -0.281989 -0.953517 0.106238
0.24116100 4.81456614 -0.20559099 -0.435876 -0.897713 0.064220
0.24024600 4.81661606 -0.19521700 -0.463162 -0.883464 0.070511
0.20674500 4.83560801 -0.31148800 -0.629157 -0.776196 0.041001
0.20891300 4.83370495 -0.31676000 -0.585783 -0.810126 0.023542
0.24505800 4.82893085 -0.07026300 -0.687223 -0.696531 0.206322
0.25511700 4.82275105 -0.07374900 -0.511987 -0.845443 0.151973
0.20905600 4.83441591 -0.28974700 -0.623386 -0.780991 0.037994
0.20942000 4.84150600 -0.20080100 -0.719757 -0.690909 0.067793
0.21560900 4.83435488 -0.19355500 -0.690323 -0.719389 0.077026
0.23914400 4.81870508 -0.32683200 -0.383079 -0.922813 -0.040809
0.21911600 4.83320618 -0.17955300 -0.674240 -0.732742 0.092141
0.23046701 4.81880903 -0.28068599 -0.475485 -0.879172 -0.031157
0.22014700 4.82597685 -0.28046101 -0.536172 -0.844099 0.004052
0.18151399 4.89458179 -0.23140800 -0.983208 -0.155624 0.095305
0.20656601 4.83973408 -0.25561801 -0.721048 -0.689258 0.070804
0.20345300 4.84351587 -0.24377701 -0.734956 -0.674072 0.073931
0.24499200 4.82539988 -0.10110000 -0.645228 -0.750510 0.142883
0.25145900 4.84510517 0.02152300 -0.671556 -0.720508 0.172861
0.25377300 4.84971285 0.06708900 -0.669152 -0.738825 0.079834
0.23372300 4.84100723 -0.08983500 -0.808971 -0.536736 0.239752
0.22672901 4.84159517 -0.11199300 -0.761249 -0.616103 0.202279
0.23964000 4.83734894 -0.06987100 -0.779371 -0.587240 0.218472
0.24461800 4.82964611 -0.07660900 -0.681984 -0.703634 0.199492
