1.43106401 1.19307005 0.20034100 0.889123 -0.282427 0.360132
1.42802000 1.19161999 0.20456700 0.868857 -0.137340 0.475631
1.43936896 1.21097696 0.20794000 0.833199 0.043265 0.551279
1.43891203 1.20941496 0.20713601 0.860550 -0.132057 0.491950
1.42860305 1.18377197 0.18877600 0.908738 -0.417317 0.006500
1.42350101 1.17586899 0.19460499 0.914791 -0.398962 -0.063135
1.41093004 1.15042603 0.20274700 0.897450 -0.427024 0.110606
1.41021597 1.15426195 0.18723400 0.955769 -0.291867 0.036327
1.42111099 1.16674304 0.16978700 0.896386 -0.410064 0.168342
1.42309701 1.17257905 0.19729599 0.889135 -0.453473 -0.061650
1.42168295 1.17000198 0.18483201 0.884940 -0.463540 0.044859
1.41512096 1.15611196 0.19957800 0.876393 -0.481550 -0.006670
1.40894496 1.14269400 0.18426800 0.941544 -0.277087 0.191617
1.40817297 1.14209902 0.18780001 0.951415 -0.284498 0.117769
1.41455603 1.14584196 0.17439599 0.908442 -0.243515 0.339754
1.41106999 1.14894104 0.19385400 0.970564 -0.237466 0.040186
1.41449106 1.15955997 0.18101700 0.888302 -0.434823 0.147811
1.41354501 1.15466106 0.19211701 0.930911 -0.353289 -0.092688
1.41417396 1.15598702 0.21281099 0.754790 -0.519020 0.401136
1.41707599 1.15227604 0.14594400 0.906464 -0.283546 0.312929
1.41650200 1.15635705 0.15202500 0.914192 -0.399875 0.065973
1.42549896 1.17179096 0.15853401 0.821623 -0.567075 0.057980
1.41614497 1.15321803 0.15783800 0.928104 -0.341642 -0.147999
1.43692994 1.18372500 0.12264300 0.771365 -0.613758 -0.168215
1.42617404 1.17443204 0.11617400 0.675093 -0.642242 -0.363006
1.42199302 1.15961599 0.13548400 0.955928 -0.122285 0.266923
1.40190995 1.14774799 0.11446800 -0.082924 -0.676488 -0.731771
1.40682101 1.15051496 0.11337200 0.323679 -0.478414 -0.816304
1.41527498 1.14111698 0.14176901 0.373334 -0.845078 0.382706
1.35065305 1.15804398 0.07177400 0.010424 -0.981058 -0.193432
1.40097904 1.15422201 0.10648700 0.191555 -0.767752 -0.611443
1.41744196 1.17526102 0.10427800 0.603223 -0.630108 -0.488964
1.39893305 1.15888703 0.09801900 0.391026 -0.773940 -0.498112
1.39715397 1.16514802 0.08564200 0.477737 -0.785433 -0.393526
1.36180496 1.16003001 0.06731800 0.051703 -0.989259 -0.136727
1.40164006 1.16858304 0.08531600 0.596913 -0.717931 -0.358148
1.39372098 1.16054702 0.09015300 0.420852 -0.794943 -0.436977
1.41218102 1.17946398 0.07953300 0.749107 -0.650814 -0.123610
1.41173398 1.17556095 0.09589500 0.688549 -0.659524 -0.301543
1.42999196 1.18270504 0.10783100 0.597351 -0.730096 -0.331862
1.44978404 1.20552802 0.12027500 0.987116 -0.150340 -0.054775
1.44002295 1.19494700 0.10226200 0.779162 -0.553824 -0.293574
1.43642104 1.19359899 0.09835900 0.635717 -0.618944 -0.461272
1.43782794 1.18752205 0.10466700 0.694162 -0.652287 -0.304401
1.44360101 1.19766498 0.10695700 0.859456 -0.421302 -0.289550
1.44083405 1.19133496 0.10675800 0.778363 -0.566800 -0.269980
1.44242597 1.20283198 0.09688600 0.914246 -0.391820 -0.103110
1.44639301 1.20128095 0.11373500 0.923612 -0.332387 -0.190946
1.44863701 1.21308506 0.11240200 0.987811 -0.023926 -0.153811
1.44364500 1.19947898 0.14336500 0.890725 -0.428867 0.150606
1.44008994 1.18926299 0.12502100 0.788696 -0.614658 0.012431
1.43802702 1.19015896 0.14447100 0.894921 -0.429844 0.119793
1.43509305 1.18179703 0.14482599 0.839291 -0.539241 0.069351
1.41841698 1.18852794 0.07756000 0.747519 -0.656466 -0.101334
1.44419301 1.19648695 0.11559900 0.844770 -0.525283 -0.102178
1.40790403 1.13918698 0.11917900 -0.209195 -0.813875 -0.542074
1.42226696 1.14664102 0.13429999 0.977534 -0.184137 0.102573
1.42022598 1.14622796 0.12866800 0.906804 -0.221986 -0.358369
1.36566198 1.14175200 0.12537500 0.174694 -0.962786 -0.206217
1.40414405 1.16093504 0.10000700 0.380527 -0.775626 -0.503590
1.41471505 1.14797795 0.15640700 0.924306 -0.356142 -0.137191
1.39473295 1.14589000 0.11726300 -0.247621 -0.802042 -0.543519
1.37692499 1.16083300 0.08464400 0.147061 -0.970602 -0.190540
1.41129696 1.13527501 0.12058300 0.466030 -0.566251 -0.679835
1.41050398 1.15140998 0.11501700 0.514150 -0.352975 -0.781702
1.41103005 1.14665198 0.11727200 0.460868 -0.358807 -0.811701
1.40303504 1.14152503 0.12203300 -0.209195 -0.813875 -0.542074
1.41316497 1.13585806 0.11620100 0.456130 -0.379308 -0.805029
1.42383003 1.14115703 0.13319300 0.978374 -0.178445 -0.104606
1.41889000 1.15529597 0.14445201 0.891354 -0.237990 0.385810
1.42098701 1.15379000 0.13834099 0.893770 -0.067273 0.443453
1.42089701 1.15284896 0.13096000 0.992858 0.109068 -0.048350
1.42305005 1.13811100 0.13774000 0.556922 -0.699893 0.447200
1.41252303 1.14605200 0.14992701 0.759871 -0.633477 0.145955
1.41979599 1.14969802 0.14251600 0.843321 -0.249476 0.475994
1.42244506 1.14617801 0.13836500 0.805227 -0.250757 0.537337
1.41887605 1.14318299 0.14186101 0.652711 -0.595662 0.468140
1.41554904 1.14495504 0.14380300 0.647874 -0.644560 0.405957
1.42156804 1.14417100 0.14071700 0.812127 -0.260317 0.522193
1.42429698 1.13921404 0.13971300 0.833327 -0.184683 0.521017
1.41468704 1.14908397 0.14622501 0.817940 -0.455823 0.350999
1.42116499 1.15878701 0.16429900 0.969295 -0.238919 -0.058182
1.40922999 1.14314902 0.15564600 0.714775 -0.668260 -0.206215
1.41363204 1.13981605 0.13911000 0.176303 -0.904451 0.388441
1.41782606 1.16185999 0.14962900 0.909063 -0.405709 0.094895
1.40671599 1.14028502 0.13306201 0.001067 -0.995277 0.097074
1.40728700 1.14018095 0.13901301 0.185260 -0.920643 0.343650
1.39290798 1.12382305 0.17642200 0.451658 -0.829352 -0.328908
1.41870606 1.14100003 0.16755299 0.824562 -0.525830 -0.208808
1.40873396 1.14129806 0.14345500 0.253686 -0.921583 0.293817
1.39640403 1.13892400 0.14226000 0.303184 -0.952326 -0.033967
1.41683900 1.13813806 0.12856100 0.211971 -0.976960 0.024868
1.42103100 1.13738203 0.13332200 0.286682 -0.944284 0.161683
1.40886605 1.14338696 0.15152600 0.592798 -0.804009 0.046466
1.40496504 1.14023101 0.14364700 0.307649 -0.936742 0.166931
1.42201805 1.13767302 0.13084100 0.563392 -0.822981 -0.072742
1.40020394 1.13836801 0.15030099 0.403592 -0.914894 0.009084
1.41487503 1.13738501 0.12550899 -0.013011 -0.999831 -0.013011
1.41275001 1.13734901 0.12679400 0.004955 -0.999948 -0.008919
1.34839594 1.14298296 0.11676200 -0.075300 -0.936623 -0.342151
1.35723996 1.14044797 0.13249999 -0.120000 -0.989124 -0.085048
1.37746298 1.15329301 0.10436400 0.000000 0.000000 0.000000
1.38986194 1.15669298 0.09896800 0.151408 -0.909861 -0.386302
1.35289097 1.14863098 0.10483200 0.000000 0.000000 0.000000
1.33873606 1.13591695 0.14917600 0.078351 -0.836224 -0.542762
1.37395704 1.12630999 0.16319300 0.253432 -0.813160 -0.523968
1.36070704 1.13896298 0.13958000 -0.018148 -0.966695 -0.255285
1.35566103 1.11556399 0.17406100 0.185395 -0.886099 -0.424802
1.36071897 1.11597502 0.17583500 0.205369 -0.882053 -0.424035
1.35245705 1.11397898 0.17677200 0.170489 -0.932836 -0.317414
1.35089600 1.13539898 0.15045001 -0.102116 -0.841377 -0.530714
1.36799002 1.11900902 0.17189699 0.246498 -0.866525 -0.434019
1.39864802 1.13286698 0.16671300 0.499187 -0.822648 -0.272143
1.36246395 1.11593497 0.17795400 0.179334 -0.861102 -0.475755
1.36725295 1.11359501 0.18417300 0.232630 -0.868986 -0.436744
1.36308098 1.11701000 0.17121600 0.229788 -0.869590 -0.437048
1.38982201 1.12880695 0.16716801 0.284427 -0.831521 -0.477153
1.35946202 1.11626196 0.17190599 0.205369 -0.882053 -0.424035
1.35599303 1.11263001 0.18056400 0.151772 -0.880276 -0.449533
1.38574100 1.11798799 0.18595000 0.415679 -0.883133 -0.217455
1.38756704 1.11595798 0.19540399 0.586216 -0.781106 -0.214998
1.39299703 1.12105298 0.19700500 0.673163 -0.729632 -0.120367
1.40857303 1.13519204 0.18799800 0.848939 -0.518557 0.101988
1.38504195 1.11128294 0.20231999 0.551255 -0.812456 -0.189826
1.40693903 1.13472605 0.18452699 0.781116 -0.612146 0.123022
1.40409601 1.12996495 0.18442699 0.728940 -0.684509 0.009719
1.40879202 1.13873899 0.18575500 0.935486 -0.320071 0.149733
1.40475202 1.13311005 0.17504799 0.630383 -0.774875 0.046748
1.40754604 1.13940895 0.16068800 0.559226 -0.777847 -0.286742
1.41359305 1.13940501 0.16443700 0.634511 -0.714829 -0.293963
1.40571594 1.13232005 0.18777600 0.783836 -0.617611 0.064484
1.40918100 1.13723397 0.17881501 0.758017 -0.619073 0.205328
1.41186202 1.13632095 0.17343201 0.623206 -0.780077 0.055618
1.41870201 1.13904202 0.17063500 0.812433 -0.583040 -0.004096
1.41123903 1.13693905 0.18989800 0.898266 -0.426083 0.107568
1.41659701 1.13828897 0.17224699 0.713023 -0.692270 0.111178
1.41738403 1.15887702 0.17420800 0.913239 -0.306349 0.268600
1.40928495 1.15024602 0.18885200 0.974198 -0.225542 -0.008266
1.41025698 1.14415002 0.19346701 0.968834 -0.242516 0.050473
1.41005099 1.14012802 0.19821499 0.921389 -0.336470 0.194500
1.40779495 1.14848697 0.20738800 0.800315 -0.511885 0.312202
1.41718197 1.15978706 0.21680400 0.688180 -0.394424 0.608965
1.41351795 1.15922105 0.21811301 0.637879 -0.384046 0.667547
1.41140699 1.14340997 0.17776300 0.904079 -0.238069 0.354913
1.40751100 1.13939905 0.20196401 0.880574 -0.389861 0.269441
1.40545499 1.13677502 0.20552599 0.831503 -0.447974 0.328514
1.41144598 1.13966405 0.19450299 0.959428 -0.275028 0.062103
1.41184103 1.14988899 0.19845299 0.953433 -0.296595 0.054736
1.40679801 1.14830506 0.21037900 0.735696 -0.531610 0.419692
1.41756904 1.15306199 0.16142599 0.948705 -0.235475 -0.210975
1.41785705 1.14696503 0.16682100 0.940073 -0.297804 -0.166057
1.41262496 1.13766897 0.17564300 0.762623 -0.626170 0.162228
1.41840506 1.14143801 0.17038999 0.845969 -0.530996 0.048779
1.41689003 1.14105594 0.17343600 0.876120 -0.385856 0.289014
1.41634202 1.14574397 0.17109901 0.958720 -0.211424 0.190148
1.39738500 1.14181101 0.22213300 0.822132 -0.262647 0.505090
1.39902401 1.14066398 0.21939300 0.820337 -0.339831 0.459958
1.40292096 1.14046395 0.21108399 0.780627 -0.462534 0.420338
1.39930606 1.14418495 0.22080299 0.799272 -0.305464 0.517548
1.40494096 1.14433396 0.21022700 0.767167 -0.509816 0.389284
1.40170002 1.15892303 0.22245701 0.569259 -0.309484 0.761685
1.39619994 1.13903296 0.22471900 0.888126 -0.220184 0.403425
1.41090703 1.15610504 0.21881799 0.619479 -0.410218 0.669303
1.39367902 1.13151896 0.22970800 0.889123 -0.282427 0.360132
1.39892006 1.13403499 0.21677300 0.856714 -0.274332 0.436786
1.40825796 1.14977896 0.21700101 0.645280 -0.457563 0.611759
1.39613295 1.14866304 0.22275899 0.788075 -0.248127 0.563357
1.40242302 1.16347206 0.22361401 0.589757 -0.376196 0.714608
1.38251495 1.11169696 0.21642999 0.623961 -0.735099 0.265144
1.37821496 1.12797499 0.25805199 0.671830 -0.739720 0.038188
1.38550699 1.12671196 0.23789901 0.785072 -0.512143 0.348386
1.38987899 1.14232004 0.24524599 0.948392 -0.155142 0.276558
1.39622200 1.13289499 0.22087599 0.866261 -0.300976 0.398755
1.41620803 1.16163599 0.21785299 0.646704 -0.340456 0.682542
1.42077303 1.16763496 0.21444400 0.763026 -0.308730 0.567871
1.41912305 1.16627395 0.21560700 0.730096 -0.331862 0.597351
1.39936495 1.16444802 0.25437599 0.865424 -0.475910 0.156684
1.38764501 1.14938700 0.26090801 0.900830 -0.433929 0.014508
1.40270996 1.16732395 0.25164700 0.898303 -0.393280 0.195914
1.40243399 1.14660096 0.22052599 0.698891 -0.343744 0.627210
1.39542103 1.16182303 0.24496999 0.818306 -0.571538 0.060983
1.40786803 1.16643798 0.22048301 0.555667 -0.286541 0.780467
1.39831495 1.15107799 0.22154200 0.716027 -0.329600 0.615361
1.41714096 1.17013800 0.21672200 0.704945 -0.258216 0.660589
1.41252995 1.16574204 0.21853800 0.631984 -0.297499 0.715605
1.42460704 1.17164505 0.20940299 0.894190 -0.309011 0.323939
1.42189002 1.18068302 0.21507800 0.805020 -0.035001 0.592215
1.42272198 1.16977298 0.21369500 0.790822 -0.293191 0.537252
1.42638695 1.17425203 0.20761099 0.902725 -0.226046 0.366048
1.42765296 1.17716205 0.20816700 0.903760 -0.167575 0.393873
1.40380800 1.15101397 0.22089800 0.630074 -0.398551 0.666456
1.40714896 1.15165901 0.21971500 0.612606 -0.410064 0.675693
1.40542805 1.14648700 0.21899401 0.700985 -0.397500 0.592126
1.40441096 1.16250002 0.22148301 0.536927 -0.281847 0.795155
1.40989196 1.15191996 0.21774000 0.646739 -0.439515 0.623342
1.40337896 1.14372003 0.21391200 0.758822 -0.460538 0.460538
1.42192996 1.18870902 0.21244501 0.803760 -0.032150 0.594084
1.41916800 1.16413498 0.20866200 0.831459 -0.503775 0.234279
1.42089903 1.16489899 0.20491900 0.853050 -0.512973 0.095736
1.42125201 1.19206297 0.21364699 0.808421 -0.163484 0.565445
1.42653596 1.19404900 0.20906000 0.821496 -0.241979 0.516325
1.42352998 1.17349505 0.21430500 0.792843 -0.138338 0.593517
1.42919505 1.17832994 0.20452900 0.932048 -0.159265 0.325455
1.42485905 1.18992603 0.20844200 0.844519 -0.105025 0.525127
1.41958797 1.17415202 0.21707000 0.742846 -0.165583 0.648661
1.42233503 1.17097497 0.21518800 0.753149 -0.250002 0.608494
1.41971397 1.18720400 0.21482500 0.792279 0.058319 0.607366
1.41887498 1.18004894 0.21838200 0.760793 -0.055668 0.646603
1.41255999 1.18694794 0.23516700 0.895167 -0.338108 0.290445
1.41894197 1.19945395 0.25216100 0.929594 -0.366362 0.040417
1.41642702 1.19576001 0.28415099 0.981576 -0.085933 0.170656
1.42372203 1.20920897 0.23358300 0.951799 0.156625 0.263719
1.42288399 1.20841599 0.24647699 0.944429 0.300439 0.133379
1.42030895 1.20149899 0.24069101 0.951905 -0.305658 0.021209
1.42210805 1.20460904 0.25002900 0.980433 0.167272 0.103782
1.42100501 1.20149696 0.24798700 0.972871 -0.229689 0.027659
1.42135501 1.20237505 0.25189900 0.979871 0.154068 0.126952
1.42294502 1.20583999 0.24542700 0.963173 0.250091 0.098754
1.42200994 1.20605302 0.23983601 0.977185 0.138528 0.160992
1.42674804 1.20673800 0.21769600 0.809942 -0.222849 0.542523
1.42547202 1.20842695 0.22147200 0.905278 -0.022467 0.424225
1.41515398 1.18997502 0.22418800 0.892791 -0.250218 0.374587
1.43755996 1.20839596 0.20857400 0.852002 -0.104884 0.512925
1.42980301 1.20634997 0.21444000 0.745642 -0.285803 0.601942
1.41751397 1.19781101 0.23122600 0.891923 -0.429550 0.141281
1.40819502 1.19085503 0.25057799 0.816879 -0.548109 0.179683
1.40614605 1.18692899 0.25614300 0.882563 -0.440555 0.164299
1.41119397 1.19060802 0.24159500 0.837480 -0.500056 0.220389
1.41695797 1.19760001 0.24177100 0.855706 -0.512862 0.068850
1.41132104 1.18239403 0.23405699 0.888742 -0.340210 0.307238
1.40787196 1.17991698 0.24313900 0.911545 -0.307737 0.272734
1.41070902 1.18276596 0.23797300 0.906378 -0.315837 0.280581
1.40798998 1.18449700 0.24373300 0.896382 -0.340417 0.283929
1.40597498 1.18581605 0.24853800 0.912354 -0.332161 0.239330
1.40293705 1.18294704 0.26348501 0.911524 -0.380155 0.156867
1.40254200 1.17349005 0.25288200 0.913214 -0.346590 0.214282
1.40406203 1.16879404 0.22762500 0.789152 -0.439138 0.429415
1.40860999 1.17889595 0.24065100 0.902624 -0.328361 0.278297
1.41074800 1.18059397 0.23060700 0.872356 -0.362081 0.328470
1.41720104 1.18761301 0.21844600 0.811391 -0.081857 0.578744
1.41196096 1.17877996 0.22546600 0.854885 -0.261512 0.448088
1.41306806 1.18341398 0.22604699 0.897159 -0.202772 0.392416
1.41763198 1.17742705 0.21973000 0.755613 -0.104578 0.646616
1.42263305 1.18546999 0.21237899 0.825890 0.006826 0.563790
1.39681399 1.12525499 0.19787100 0.730751 -0.667469 0.143137
1.38686597 1.12172699 0.22905600 0.750317 -0.576050 0.324331
1.35297406 1.11584902 0.24781100 0.338526 -0.812144 0.475208
1.38949704 1.13705802 0.24708000 0.938978 -0.166349 0.301078
1.38901496 1.15231597 0.25562900 0.884348 -0.464657 0.044967
1.39192104 1.15158403 0.23672900 0.947393 -0.175342 0.267771
1.38871396 1.14998806 0.24783400 0.946547 -0.297715 0.124159
1.39522099 1.14583695 0.22448900 0.830840 -0.211128 0.514908
1.40831304 1.18973601 0.26414701 0.750185 -0.661109 0.012526
1.40079296 1.18350101 0.27840000 0.834049 -0.549999 -0.043164
1.36714602 1.11963499 0.25210500 0.318631 -0.924737 0.208172
1.36163294 1.11522603 0.24443300 0.221176 -0.834366 0.504891
1.34587502 1.09838998 0.23291400 0.454766 -0.812197 0.365409
1.35598397 1.10900903 0.23971701 0.400454 -0.753506 0.521407
1.34322596 1.09318101 0.21708000 0.320695 -0.946995 -0.018864
1.33709800 1.09027302 0.22120500 0.423997 -0.905147 -0.030570
1.34404099 1.09523702 0.22603600 0.456495 -0.863599 0.214029
1.33473599 1.09519994 0.20603400 0.167828 -0.942840 -0.287900
1.34610701 1.09399498 0.21301600 0.292216 -0.955079 -0.049335
1.35063398 1.09497905 0.21211299 0.386590 -0.920642 0.054468
1.33823597 1.09090495 0.21775700 0.319751 -0.937483 -0.137425
1.34305501 1.09474599 0.22267801 0.472718 -0.856895 0.205595
1.35640204 1.09827399 0.21267700 0.336729 -0.940518 0.045155
1.35123897 1.09934199 0.22136100 0.427566 -0.880283 0.205646
1.35738099 1.09802306 0.20711100 0.323674 -0.945636 -0.031733
1.37983501 1.10732496 0.20772000 0.517439 -0.850995 0.089803
1.36502802 1.10210896 0.21734300 0.288384 -0.927659 0.237242
1.36066699 1.10517097 0.22929899 0.389495 -0.843124 0.370724
1.35460806 1.10162497 0.22769400 0.429129 -0.841093 0.329259
1.33563602 1.10449004 0.24856301 0.407654 -0.758008 0.509158
1.34853303 1.10391903 0.24016500 0.457392 -0.703552 0.543881
1.35795403 1.11826801 0.26104900 0.152617 -0.986767 0.054756
1.36668396 1.11669004 0.28310499 0.337580 -0.907519 -0.249897
1.33707595 1.11452901 0.26616701 0.502270 -0.835081 0.224419
1.34111404 1.11728406 0.27312601 0.269019 -0.961144 -0.061887
1.34739494 1.11843300 0.26887700 0.110889 -0.993614 -0.020860
1.36749005 1.11874902 0.27949700 0.371059 -0.903637 -0.213904
1.33954096 1.11539495 0.26154199 0.485902 -0.838449 0.246783
1.34730899 1.11695802 0.25700501 0.152969 -0.985403 0.074706
1.35420406 1.11826706 0.25384599 0.121415 -0.984544 0.126224
1.34511197 1.11791205 0.26337001 0.133390 -0.991058 0.003307
1.36670303 1.12018800 0.27314499 0.411030 -0.882899 -0.227031
1.37154305 1.12239003 0.25670600 0.531122 -0.808365 0.253880
1.39207494 1.15614402 0.27855900 0.944309 -0.328945 0.008755
1.37759900 1.12655997 0.27397600 0.709311 -0.697513 -0.101751
1.36402595 1.11953104 0.26453200 0.301750 -0.951475 -0.060350
1.37095404 1.11965704 0.28116399 0.535323 -0.826226 -0.175442
1.36293101 1.11483395 0.29126999 0.189006 -0.947750 -0.256994
1.38008499 1.12944698 0.27603400 0.767621 -0.623411 -0.148717
1.36997604 1.11779106 0.28463200 0.513297 -0.839532 -0.178082
1.38741100 1.14336097 0.29307100 0.000000 0.000000 0.000000
1.37930298 1.12582302 0.28457001 0.740739 -0.645655 -0.185568
1.38440096 1.13921297 0.26996401 0.913018 -0.407667 0.014327
1.42053604 1.20106602 0.26168299 0.979553 -0.036718 0.197806
1.41653705 1.19731104 0.26166901 0.891500 -0.445057 0.084575
1.39369500 1.16063404 0.29069600 0.958421 -0.283931 -0.028517
1.40042400 1.21248102 0.29649800 0.881587 0.471170 -0.028351
1.39769197 1.17579496 0.28273600 0.871546 -0.477853 -0.109835
1.41114497 1.19388103 0.25285599 0.734254 -0.677445 0.044027
1.39131796 1.15211999 0.29036200 0.936147 -0.350574 -0.026967
1.38475704 1.14032495 0.28182000 0.908409 -0.416299 -0.038571
1.41228902 1.19176900 0.29657000 0.912499 -0.220557 0.344530
1.40580297 1.18464303 0.29104301 0.768424 -0.629783 -0.113567
1.39888799 1.18063498 0.27490601 0.890978 -0.454044 0.001316
1.41606998 1.19658196 0.28076199 0.985178 -0.116397 0.125997
1.39950097 1.17608595 0.26552200 0.916265 -0.344493 0.204409
1.40533495 1.18865800 0.27228901 0.724794 -0.688060 0.035321
1.41628397 1.19845295 0.27673301 0.981951 0.083135 0.169884
1.41738296 1.19874299 0.28309399 0.956021 0.241339 0.166670
1.41414297 1.19529402 0.27634299 0.887892 -0.459347 0.025445
1.42260504 1.20659006 0.25896600 0.897952 0.374759 0.230734
1.41446805 1.20524395 0.28709400 0.791508 0.589485 0.161317
1.41156995 1.20801198 0.28738999 0.735305 0.659501 0.156158
1.41427398 1.20743096 0.28398600 0.749054 0.646979 0.142606
1.41203797 1.20778704 0.29137999 0.753430 0.623475 0.208856
1.41443300 1.19800401 0.29809299 0.895605 0.305489 0.323371
1.41521096 1.19799495 0.29250500 0.951833 0.134455 0.275566
1.41381502 1.19490600 0.29721099 0.914568 0.068897 0.398520
1.40898299 1.20782900 0.29688701 0.724602 0.621776 0.297231
1.41636801 1.20168197 0.28549001 0.868867 0.463102 0.174949
1.41023302 1.20828795 0.29516399 0.726123 0.620330 0.296540
1.41450703 1.20122504 0.29590300 0.856183 0.444116 0.264028
1.41691601 1.20117199 0.28150699 0.880355 0.443815 0.167340
1.41708803 1.20149899 0.27678999 0.906514 0.376153 0.191679
1.41629899 1.20429504 0.28158200 0.849354 0.498307 0.174036
1.41959202 1.20473695 0.26586699 0.852863 0.437956 0.284288
1.42199194 1.20193696 0.25933200 0.967254 0.127169 0.219655
1.41891599 1.20044601 0.26667601 0.965194 0.119525 0.232623
1.42115295 1.20052600 0.26001400 0.978285 0.064090 0.197108
1.39964402 1.16872895 0.25698200 0.909186 -0.352364 0.221859
1.39545298 1.16780102 0.27511701 0.954605 -0.276299 0.111305
1.39343798 1.15783703 0.26662001 0.873730 -0.482010 0.065287
1.39568806 1.16319001 0.26697901 0.920444 -0.337164 0.197746
1.40221000 1.17868900 0.25633499 0.929344 -0.292807 0.224910
1.38235402 1.48597395 -0.40329099 -0.097574 0.936976 -0.335493
1.36924505 1.45191300 -0.11947900 0.332869 0.941619 0.050513
1.37109399 1.44859397 -0.11935300 0.595217 0.800760 0.067087
1.32187402 1.23391902 -0.13837200 0.593533 -0.799600 0.091424
1.32801199 1.22818196 -0.13628300 -0.287065 -0.179931 -0.940860
1.41096306 1.39251399 -0.02047200 0.294985 0.937580 0.184192
1.40973401 1.39000404 -0.04174900 -0.224193 0.967234 -0.119143
1.39983702 1.38607705 -0.18434200 0.925865 0.291555 -0.240355
1.28061497 1.39455295 0.01047100 0.162621 0.958536 0.234015
1.28324699 1.39028203 0.01192300 0.202674 0.963680 0.173907
1.28407800 1.39227796 0.00951800 0.237831 0.944449 0.226833
1.28471100 1.39681602 0.00579100 0.301172 0.812061 0.499851
1.44162798 1.22268796 0.01979400 0.973505 -0.215923 0.075265
1.43424201 1.36400294 -0.00383200 0.825355 0.296000 0.480805
1.43120301 1.36777401 -0.00140500 0.738702 0.391463 0.548703
1.38992000 1.20969903 -0.03051400 0.088741 -0.941714 -0.324500
1.32557499 1.42184901 -0.16462600 -0.512796 0.843823 -0.158124
1.34769404 1.43017399 -0.02115200 -0.067446 0.974907 0.212150
1.31470299 1.22833896 -0.15070701 0.848812 -0.458942 0.262472
1.28319001 1.21784604 -0.13012899 -0.046630 -0.990610 -0.128518
1.28264296 1.25273299 -0.18939500 0.015286 -0.776830 -0.629524
1.34160495 1.44823503 -0.17376401 -0.721991 0.680136 -0.127058
1.35881901 1.45709801 -0.15795900 -0.184478 0.599172 0.779077
1.38843501 1.37378502 0.07804800 0.154122 0.858681 0.488788
1.38960099 1.37251306 0.08261800 0.123953 0.835590 0.535186
1.42201698 1.33455300 -0.17361400 0.699450 0.539194 0.469083
1.42110896 1.33850300 -0.17186099 0.724031 0.511958 0.462253
1.42375898 1.33597302 -0.17669301 0.699219 0.660993 0.272361
1.41015506 1.24503696 -0.09187300 0.654859 -0.754296 -0.046877
1.27907598 1.45841396 -0.15054400 0.166013 0.948841 0.268591
1.40985894 1.38616705 -0.15499800 0.855127 0.426793 -0.294287
1.36046505 1.27136397 -0.23304801 0.476951 -0.776470 -0.411839
1.31747305 1.31658006 -0.32857299 -0.132353 -0.915327 -0.380341
1.31448102 1.26625001 -0.23757599 0.006394 -0.927129 -0.374688
1.31760597 1.26683104 -0.23494799 0.109213 -0.951333 -0.288163
1.46555603 1.32162905 -0.23409900 0.992576 0.032379 -0.117233
1.40921199 1.45054400 -0.43954301 0.975189 -0.193045 -0.108354
1.44018102 1.31217301 -0.24393500 0.163041 -0.926688 -0.338624
1.41852796 1.31328702 -0.30631301 0.264974 -0.791786 -0.550330
1.41533196 1.31496894 -0.30881500 0.275996 -0.818632 -0.503654
1.36855698 1.43591297 -0.02567400 0.335286 0.927948 0.162774
1.37770903 1.46818697 -0.42569101 -0.511882 0.795730 0.323714
1.38621998 1.46505594 -0.33306399 0.383896 0.677172 0.627744
1.38651705 1.46151304 -0.32868400 0.427989 0.677788 0.597853
1.37564504 1.48907697 -0.38280100 -0.089165 0.985574 0.143853
1.28061998 1.52116299 -0.32541299 0.825629 0.453070 0.336250
1.34326005 1.47184801 -0.29872501 0.304520 0.889557 0.340522
1.40172303 1.38876903 -0.23049399 0.651693 0.717967 0.244582
1.40806699 1.42498100 -0.32952800 0.544707 0.704621 0.454756
1.40640700 1.42536604 -0.32675001 0.498528 0.727089 0.472028
1.38330495 1.31060505 -0.39196900 0.670206 -0.613662 0.417424
1.35345304 1.45892704 -0.24528199 -0.129019 0.859645 0.494332
1.39476597 1.42782402 -0.28537700 0.925138 0.376126 0.051470
1.39243495 1.42993402 -0.28325501 0.892345 0.448216 0.053132
1.28062701 1.31488597 -0.35880500 -0.934942 0.019185 -0.354281
1.37524199 1.26618195 -0.21922199 0.699606 -0.535975 -0.472526
1.37297297 1.26732302 -0.21574201 0.656191 -0.659480 -0.366743
1.37481594 1.26540101 -0.21758200 0.608321 -0.677938 -0.412730
1.40702903 1.39935601 -0.43489099 0.595439 -0.605560 0.527967
1.40880299 1.40312099 -0.43704799 0.565386 -0.548509 0.616017
1.38929105 1.43850601 -0.30152899 0.892290 0.449520 0.041847
1.27420199 1.51612997 -0.23503000 0.240709 0.880605 0.408158
1.27714205 1.51763105 -0.23559800 0.369561 0.866398 0.335825
1.42386794 1.33281302 0.06651700 0.967784 0.250728 0.023014
1.34307003 1.42046797 0.01115400 -0.310258 0.933557 0.179477
1.40082002 1.36781204 0.03091200 0.824976 0.565033 -0.012313
1.45885396 1.29246604 -0.04013400 0.467844 0.771047 0.431982
1.31379700 1.45204902 -0.23599800 0.689358 0.565841 0.452339
1.27958202 1.51149702 -0.24897000 0.663916 0.698943 0.265885
1.28630304 1.51040006 -0.25303799 0.842954 0.486261 0.230174
1.28684795 1.51556599 -0.25479999 0.898682 0.369180 0.236805
1.33983397 1.38607204 0.06276900 0.037361 0.845457 0.532735
1.29228604 1.38861895 -0.01187200 0.590565 0.699745 -0.401981
1.44596899 1.36383700 -0.06986300 0.947169 -0.169379 -0.272362
1.44705105 1.36962605 -0.06577300 0.978485 0.017620 -0.205564
1.36730897 1.43706596 -0.03107200 0.171208 0.969322 0.176357
1.37027597 1.44745398 -0.10192100 0.631213 0.767212 0.113825
1.39123404 1.44134402 -0.23847499 0.898919 0.433820 0.061197
1.39073706 1.43952298 -0.24406700 0.906862 0.408434 0.103839
1.44430602 1.29144895 -0.04848600 -0.271731 0.937822 0.215992
1.36163795 1.44916999 -0.17757700 -0.094064 0.808950 -0.580303
1.46168602 1.32458496 -0.14693700 0.761638 0.624817 0.171787
1.44366300 1.35738695 -0.06736500 0.931179 -0.283157 -0.229625
1.27706504 1.43748605 -0.06609100 -0.481131 0.860738 0.166262
1.43385899 1.38476896 -0.10675400 0.893420 0.190927 -0.406630
1.41701698 1.35389900 -0.19327500 0.836568 0.505585 -0.211040
1.37144494 1.43846095 -0.08340000 0.814728 0.562444 0.140982
1.35379505 1.44697797 -0.11660000 -0.365926 0.930643 -0.001266
1.35515201 1.44787800 -0.12440000 -0.347672 0.936240 0.050784
1.34425604 1.43853199 -0.13568901 -0.556521 0.822366 -0.118316
1.34615803 1.44126797 -0.12851000 -0.581044 0.806436 -0.109769
1.37369704 1.43536603 -0.03788100 0.640559 0.754569 0.142513
1.37560499 1.43217099 -0.03417000 0.692023 0.715531 0.095502
1.37130594 1.43454504 -0.02434300 0.444782 0.885274 0.135866
1.37231600 1.43461394 -0.02763500 0.523159 0.837351 0.158578
1.27697396 1.39995396 0.02091400 0.026203 0.987754 0.153803
1.28105497 1.39758098 0.01982500 0.040687 0.995194 0.089073
1.27933598 1.39982796 0.02202400 0.039882 0.997039 0.065751
1.30413306 1.43724799 -0.04365100 -0.309106 0.846548 0.433370
1.30159402 1.42618895 -0.03476200 -0.553824 0.293574 0.779162
1.37651300 1.43499899 -0.04670300 0.779636 0.625668 0.026594
1.37448895 1.43676901 -0.04334100 0.664509 0.740789 0.098283
1.34442496 1.44684196 -0.08539600 0.077623 0.995975 0.044824
1.36513996 1.43784797 -0.03431300 -0.003412 0.983919 0.178584
1.32751000 1.44401002 -0.04791700 0.269906 0.876063 0.399581
1.34133899 1.39904404 0.04806000 0.161636 0.771925 0.614821
1.33434296 1.39857197 0.04725800 0.073046 0.809231 0.582932
1.42515695 1.33349705 0.07586800 0.949710 0.310653 0.039307
1.37118900 1.44243300 -0.06056200 0.444955 0.879698 0.167770
1.37248898 1.44075298 -0.05772800 0.686659 0.724087 0.064779
1.37455499 1.43063402 -0.07541500 0.788256 0.614644 0.029402
1.37864602 1.42895496 -0.07549700 0.741044 0.670198 0.041090
1.40129197 1.39569294 -0.02908600 0.620353 0.784115 -0.018042
1.39931905 1.39449096 -0.02605500 0.671049 0.737719 0.073917
1.39256406 1.41143000 -0.03162100 0.831486 0.554785 0.029054
1.29565096 1.42379797 -0.03730600 -0.511578 0.406974 0.756743
1.37874198 1.41617501 0.00211000 0.720275 0.657778 0.220301
1.37891901 1.41543102 0.00059100 0.747135 0.640183 0.178762
1.38893902 1.40129495 -0.00845700 0.803488 0.567435 0.180066
1.39036798 1.39956295 -0.00445400 0.859028 0.500502 0.107558
1.37560904 1.41285002 0.01828000 0.480840 0.785210 0.390177
1.37533498 1.41851997 0.01225900 0.669451 0.682294 0.293788
1.33723199 1.39077699 0.05580100 0.140655 0.821723 0.552257
1.33402801 1.39061701 0.05929500 0.185825 0.817326 0.545388
1.32631004 1.43148506 -0.02457100 -0.140297 0.902716 0.406718
1.34010196 1.40868294 0.03489600 -0.144849 0.789947 0.595820
1.34471202 1.40648198 0.03746700 -0.029554 0.685373 0.727593
1.35045600 1.39445996 0.05574300 -0.047952 0.875468 0.480891
1.30527198 1.40675294 0.03984300 -0.002996 0.999815 0.018978
1.44061697 1.24689305 0.06711200 0.820355 0.560064 0.115522
1.34130204 1.41124904 0.03115300 -0.305084 0.765106 0.567041
1.34036398 1.41278601 0.02560000 -0.446058 0.766304 0.462397
1.30383098 1.18458402 0.06245700 -0.974834 -0.157638 -0.157638
1.31254303 1.18205500 0.04221600 -0.654751 -0.671079 -0.347785
1.30485201 1.21552706 0.02283300 -0.690581 -0.721907 0.044140
1.30904305 1.19614601 0.02377200 -0.928964 -0.364430 -0.064935
1.32106400 1.18617105 0.01304200 -0.428260 -0.851881 -0.301483
1.30344796 1.19298196 0.07807700 -0.978644 -0.005805 -0.205480
1.30212700 1.18618000 0.07278200 -0.983367 0.003426 -0.181597
1.30645096 1.20754695 0.05706900 -0.969300 -0.231980 -0.081506
1.44400096 1.23522401 0.06876400 0.963135 0.260613 0.066727
1.43811703 1.20354795 0.06273500 0.506851 -0.861235 -0.037087
1.37601602 1.17627096 0.01071900 0.036137 -0.995403 -0.088699
1.37995005 1.17796397 0.00993700 0.695781 -0.620472 -0.361806
1.37672102 1.18500197 0.00303900 0.693430 -0.216599 -0.687197
1.40106201 1.22089100 -0.04862800 0.358449 -0.893891 -0.269208
1.27769995 1.22547102 -0.15385100 -0.760963 -0.586212 0.278014
1.27947295 1.22463405 -0.15045100 -0.690925 -0.648855 0.318764
1.27893102 1.22706294 -0.15152200 -0.720405 -0.647892 0.247492
1.37384295 1.17832696 -0.00572800 0.893365 0.147227 -0.424527
1.41102695 1.26777101 0.03172300 0.584342 0.772334 0.249089
1.31207705 1.16227901 0.08782100 -0.542144 -0.733295 -0.410316
1.44672799 1.24562395 0.03454300 0.993513 0.014240 0.112825
1.44822395 1.25077403 0.03371100 0.973883 0.096017 0.205750
1.44744003 1.23115599 0.03991900 0.996118 -0.022615 -0.085074
1.41676402 1.26160002 0.04465100 0.165048 0.918346 0.359721
1.43494201 1.34309399 -0.00625700 0.945474 -0.085474 0.314281
1.44980204 1.24283397 0.01583400 0.900365 -0.297165 0.317863
1.39825797 1.28711498 0.20205601 0.569255 0.817133 0.090793
1.39624000 1.37684798 0.01127000 0.628640 0.697218 0.344527
1.27370000 1.41444600 -0.00990500 0.613995 0.779699 -0.122799
1.40251803 1.28059101 0.00705700 0.922738 0.158224 0.351453
1.40873694 1.27421904 0.06111600 0.949432 -0.092979 -0.299890
1.43176103 1.34086895 0.00417200 0.951816 0.071031 0.298330
1.40630198 1.26633894 0.05259100 0.927325 0.368535 -0.065192
1.43779898 1.29577696 -0.03685300 0.262878 0.942783 0.205073
1.42587698 1.36528397 0.00132600 0.683424 0.355643 0.637534
1.42731905 1.36053801 0.00084500 0.726556 0.236955 0.644956
1.43187296 1.34704697 -0.00130600 0.905527 0.036008 0.422757
1.43204105 1.32733297 -0.02007800 0.871896 -0.484077 0.073937
1.40970695 1.29060805 0.04929700 0.536766 -0.479912 -0.693950
1.45220304 1.24081898 -0.02393300 0.609031 -0.588786 -0.531426
1.44891000 1.28212595 -0.00645600 0.413239 0.739220 0.531778
1.44952595 1.30281901 -0.05512200 -0.309842 0.871526 0.380053
1.45250404 1.30017996 -0.04771200 -0.094763 0.910547 0.402398
1.40027404 1.39260197 -0.01310300 0.602782 0.737806 0.303802
1.40098500 1.39280999 -0.01511100 0.573296 0.761733 0.301819
1.38916099 1.37887895 0.05759600 0.212177 0.856234 0.471004
1.38920796 1.37766194 0.06165100 0.204587 0.861656 0.464428
1.43417597 1.34253001 -0.04971000 0.879960 -0.475046 0.001323
1.43761098 1.34758401 -0.07643800 0.930608 -0.350841 -0.104304
1.43209302 1.37711704 -0.01507400 0.705013 0.538343 0.461675
1.42871296 1.31161404 0.06479500 0.999238 -0.015373 0.035870
1.40259194 1.39196002 -0.01067500 0.600938 0.703015 0.380320
1.46233499 1.29281104 -0.04477200 0.749569 0.565010 0.344834
1.46278703 1.29210806 -0.04590300 0.751533 0.546125 0.370061
1.44155896 1.35680497 -0.07386300 0.911816 -0.287404 -0.293240
1.46098804 1.30129898 -0.06332200 0.748884 0.639068 0.175400
1.43410206 1.35730398 -0.09915800 0.829391 -0.105664 -0.548585
1.44039202 1.38594699 -0.06586000 0.860770 0.500579 -0.092175
1.43297005 1.32713401 -0.10641100 0.808321 0.543500 -0.226330
1.46634603 1.28022897 -0.05999400 0.971021 -0.162477 0.175270
1.46352398 1.26361704 -0.02702300 0.987711 -0.156191 -0.005618
1.43939805 1.31651604 -0.08621600 0.379228 0.723980 0.576229
1.43633294 1.31943405 -0.08725500 0.606632 0.626797 0.489002
1.43827403 1.31519699 -0.08385200 0.413230 0.642249 0.645568
1.46196795 1.28350794 -0.11080600 0.965365 -0.003607 -0.260877
1.46355104 1.29657996 -0.09362700 0.973826 0.227265 0.003533
1.44095504 1.32238996 -0.11844000 0.281186 0.950168 0.134596
1.44462800 1.32246101 -0.11894200 0.161153 0.973260 0.163690
1.45845401 1.28486800 -0.12164600 0.989268 -0.092269 -0.113293
1.45881605 1.28592396 -0.11986700 0.990147 -0.077409 -0.116692
1.46589398 1.31569600 -0.12744001 0.970524 0.107275 0.215812
1.44821799 1.25624001 -0.09149500 0.552261 -0.830521 -0.072404
1.45300496 1.24339795 0.01303000 0.890875 -0.297957 0.342875
1.28282499 1.21886396 -0.15347400 -0.363694 -0.821091 0.439927
1.28235400 1.22145998 -0.15132999 -0.446699 -0.818683 0.360857
1.43376899 1.25184000 -0.09368600 0.213013 -0.944128 -0.251493
1.44518101 1.25504100 -0.09410100 0.499401 -0.860791 -0.098173
1.44492698 1.22739100 0.00658500 0.902055 -0.239081 0.359355
1.44284594 1.25284898 -0.12846000 0.284540 -0.958645 0.006106
1.44487000 1.25333500 -0.12438300 0.497257 -0.866412 -0.045456
1.44258797 1.25247598 -0.12406700 0.267799 -0.961812 0.056577
1.38940501 1.42722499 -0.14195400 0.890347 0.455125 0.011942
1.40172696 1.23313105 -0.07851000 0.740307 -0.667870 -0.076783
1.44713795 1.26174998 -0.05527200 0.602198 -0.797807 -0.029341
1.44850004 1.31814504 -0.09101500 0.363996 0.880537 0.303581
1.39916503 1.28541994 -0.21923800 0.161517 -0.946031 -0.280959
1.31108701 1.41890299 -0.16467001 0.046968 0.953314 -0.298307
1.35318005 1.25992095 -0.17348699 0.393887 -0.830485 0.393887
1.35434604 1.26043999 -0.17703401 0.488752 -0.830102 0.268426
1.32113504 1.23804998 -0.13534200 0.726052 -0.637471 0.257836
1.37097096 1.20456803 -0.04990800 0.317330 -0.946851 -0.052674
1.34593499 1.25968504 -0.17640100 0.412124 -0.832143 0.371069
1.32636595 1.25288200 -0.12794501 0.761920 -0.643815 -0.070575
1.27850997 1.22884202 -0.02516100 -0.135427 -0.982149 -0.130547
1.32772398 1.23838496 -0.18359600 0.424249 -0.840670 0.336581
1.32075202 1.23441398 -0.18351699 0.235235 -0.963034 -0.131264
1.31541395 1.22839606 -0.16526300 0.650271 -0.630314 -0.424090
1.30251801 1.21372604 -0.15263499 0.074559 -0.912327 0.402617
1.27504802 1.22696602 -0.09200200 -0.545299 -0.827502 -0.133753
1.27426195 1.22889900 -0.05434800 -0.304676 -0.896192 0.322510
1.33446300 1.23296595 -0.07270200 -0.120060 -0.641801 -0.757414
1.28465903 1.23117495 -0.03501400 -0.210541 -0.977426 -0.017643
1.30695498 1.21817803 -0.06999500 0.307662 -0.896232 -0.319552
1.29941201 1.22172105 -0.02910900 -0.795663 -0.590427 0.135337
1.29534602 1.22683597 -0.02894000 -0.644739 -0.708733 0.286373
1.30107105 1.37704098 -0.02317100 -0.349570 0.743040 0.570694
1.29272795 1.38960898 -0.02797000 0.736983 0.420426 0.529243
1.29507101 1.38998199 -0.03030000 0.589103 0.342426 0.731916
1.30115104 1.39605999 0.02728800 -0.148112 0.854943 -0.497128
1.31939101 1.24022698 -0.14476800 0.812566 -0.574175 -0.100299
1.34848297 1.43711305 -0.04243400 0.018096 0.968765 0.247319
1.29755402 1.44267201 -0.18310601 0.648985 0.162626 0.743217
1.43193495 1.32627106 -0.07730800 0.979118 0.027100 0.201479
1.43661404 1.36131406 -0.01632800 0.937123 0.204691 0.282669
1.43910098 1.35728705 -0.01537100 0.964923 0.076942 0.251006
1.39665103 1.40633202 -0.25241300 0.693319 0.648068 0.315145
1.33275902 1.43388796 -0.17961700 -0.604738 0.747590 0.274592
1.26942801 1.46652806 -0.17193100 0.084325 0.953518 0.289299
1.35668194 1.45314503 -0.15764201 -0.347600 0.687041 0.638083
1.35289204 1.44953406 -0.15701599 -0.548680 0.676202 0.491631
1.30315495 1.42010498 -0.16632600 0.495034 0.774201 -0.394404
1.39476705 1.40497601 -0.16692100 0.926419 0.375505 -0.027286
1.38560295 1.44745898 -0.18998601 0.855514 -0.320237 0.406872
1.38567400 1.45287502 -0.18914500 0.759720 -0.477491 0.441392
1.38595498 1.44805300 -0.18906000 0.820768 -0.379427 0.427054
1.38048506 1.45238304 -0.21316899 0.431364 0.901457 -0.036058
1.27867997 1.48626697 -0.21451800 0.100627 0.800640 0.590636
1.28526795 1.48954403 -0.21302000 0.174913 0.838683 0.515768
1.30392694 1.46085596 -0.21828599 0.894975 0.435656 0.096039
1.37732100 1.46019495 -0.17609800 0.730190 -0.250757 0.635565
1.37925398 1.45888400 -0.17720699 0.763777 -0.305831 0.568429
1.32084095 1.42157495 -0.18488200 -0.589819 0.689507 0.420350
1.32352602 1.42308104 -0.18214799 -0.609442 0.639663 0.468414
1.32054901 1.42489100 -0.18532600 -0.512221 0.765892 0.388637
1.27678800 1.25289798 -0.19167700 0.163939 -0.905228 -0.392028
1.43285704 1.34318602 -0.18306001 0.545328 0.824678 -0.150077
1.43191195 1.34024000 -0.18538000 0.353869 0.927711 -0.118867
1.42988300 1.34398901 -0.18460700 0.657491 0.731056 -0.182381
1.42714798 1.34666896 -0.18282600 0.790936 0.592826 -0.151583
1.31299400 1.45031297 -0.19637200 0.602942 0.569163 0.559030
1.31070900 1.45118904 -0.19287699 0.464580 0.598755 0.652425
1.41085505 1.37754703 -0.15068500 0.935064 -0.050861 -0.350812
1.39961898 1.38740003 -0.20667700 0.814392 0.542419 0.206272
1.40030301 1.38870394 -0.21055999 0.788046 0.591413 0.170920
1.27235401 1.21813595 -0.16227999 -0.764462 -0.208490 0.610025
1.33114100 1.24766803 -0.17514300 0.669006 -0.662495 0.336945
1.33517694 1.25050902 -0.17881601 0.580048 -0.677001 0.453006
1.28969002 1.23608100 -0.17293000 -0.173005 -0.981168 -0.085898
1.28067303 1.21510994 -0.15711400 -0.260779 -0.807321 0.529365
1.27724600 1.21306801 -0.16235800 -0.519356 -0.546248 0.657178
1.31306303 1.26514006 -0.22110900 -0.149362 -0.987642 -0.047472
1.29360700 1.21839595 -0.09803600 0.087721 -0.992275 -0.087721
1.29060304 1.21863103 -0.09536000 -0.086806 -0.985780 -0.143883
1.35361099 1.24540603 -0.11952100 -0.357826 -0.609449 -0.707483
1.35418904 1.23979604 -0.11765200 -0.421191 -0.775706 -0.469977
1.35276401 1.24099100 -0.11618000 -0.491419 -0.806308 -0.329203
1.27817094 1.35527396 -0.44702199 0.538401 -0.605912 -0.585658
1.32122004 1.24224997 -0.13499101 0.788868 -0.506097 0.348644
1.40578794 1.24443495 -0.13714799 0.028284 -0.882186 -0.470050
1.30154097 1.24264896 -0.18760200 -0.026646 -0.660551 -0.750308
1.44974601 1.28500199 -0.18342701 0.690324 -0.674455 -0.261847
1.42345297 1.24480402 -0.13984700 0.440033 -0.897454 0.030762
1.40491199 1.31161702 -0.30404100 0.493869 -0.713366 -0.497195
1.40825999 1.30798101 -0.30143300 0.441875 -0.771244 -0.458181
1.40445805 1.30899894 -0.30342001 0.527716 -0.729538 -0.435076
1.33712101 1.26482201 -0.15713900 0.572944 -0.774973 0.266742
1.40073597 1.26698601 -0.17079800 -0.459346 -0.780726 -0.423637
1.40296197 1.39761996 -0.13683900 0.526014 0.838381 -0.142923
1.32600605 1.24975395 -0.14361300 0.870041 -0.487391 0.074016
1.40301800 1.36587906 -0.19543800 0.768130 0.553246 0.322326
1.40402806 1.36441696 -0.19663100 0.786895 0.550353 0.279119
1.44490397 1.34445202 -0.25433400 0.857738 0.378641 -0.347731
1.39163601 1.43355501 -0.21826200 0.997961 0.005214 -0.063611
1.39186096 1.43183005 -0.21971799 0.992474 -0.092085 -0.080717
1.39182305 1.43388200 -0.21989000 0.990913 0.056003 -0.122293
1.42002499 1.34050202 -0.20075600 0.678651 0.730744 0.073798
1.45279896 1.33009899 -0.14848600 0.221887 0.821748 0.524878
1.41728604 1.28074503 -0.19273600 0.255043 -0.787034 -0.561720
1.41237605 1.27380800 -0.18945201 0.095146 -0.745068 -0.660168
1.43411100 1.25013995 -0.14185899 0.519315 -0.845160 -0.126556
1.45582700 1.33581102 -0.19433001 0.746285 0.665379 -0.018134
1.45346403 1.33785295 -0.19154800 0.567075 0.821623 0.057980
1.39496005 1.44306195 -0.34144300 0.747181 0.425318 0.510710
1.40093303 1.44144702 -0.34497100 0.726213 0.537629 0.428449
1.42073798 1.35172200 -0.17084800 0.669695 0.609871 0.423752
1.42041802 1.35119295 -0.16832000 0.651118 0.577089 0.492965
1.41943300 1.27994597 -0.19193400 0.187273 -0.799337 -0.570955
1.42421806 1.28201306 -0.19767800 0.039057 -0.895622 -0.443097
1.41586602 1.36081398 -0.19164500 0.693809 0.711561 0.110950
1.46233797 1.29687405 -0.17082100 0.828470 -0.536944 0.159150
1.39255702 1.42749405 -0.25317001 0.988927 -0.040014 0.142908
1.46833396 1.31622696 -0.15106800 0.990711 0.025806 0.133516
1.46160901 1.30442202 -0.14378101 0.921208 -0.388897 0.011628
1.44437003 1.33163702 -0.14618400 -0.017797 0.839217 0.543506
1.38528299 1.44617200 -0.19016300 0.892357 -0.200087 0.404555
1.39189100 1.43497503 -0.24691400 0.958427 0.259493 0.118662
1.39041400 1.41659296 -0.20083900 0.977624 0.192581 -0.084637
1.39027703 1.41919100 -0.19446801 0.950511 0.303080 -0.068354
1.28252006 1.52633405 -0.30103701 0.742880 0.532971 0.405058
1.34825099 1.47179794 -0.30259600 0.286139 0.926750 0.243432
1.40325904 1.44289505 -0.36003900 0.913762 0.394361 0.097560
1.45374596 1.29716206 -0.21136600 0.592543 -0.710724 -0.379162
1.45511305 1.29442501 -0.20707899 0.546960 -0.757954 -0.355443
1.42584896 1.41572905 -0.41728801 0.731294 0.055813 0.679775
1.42708302 1.42143404 -0.42027301 -0.067108 0.442367 0.894320
1.42071199 1.42346001 -0.41762200 0.574904 0.371804 0.728867
1.39595902 1.41397297 -0.26964700 0.990830 0.134557 0.012232
1.39660001 1.41062999 -0.26826400 0.963805 0.259438 -0.061413
1.39686298 1.41097999 -0.26746699 0.966330 0.256964 -0.013270
1.41298604 1.35477102 -0.23870701 0.969168 -0.160884 -0.186626
1.41351199 1.35205305 -0.23656000 -0.776890 0.501167 0.381147
1.44960701 1.32474601 -0.26197100 0.779939 -0.360096 -0.511885
1.40900898 1.38232005 -0.26416901 0.721553 0.649240 0.240518
1.40957201 1.38060999 -0.26170599 0.560411 0.762737 0.322758
1.27235305 1.32478905 -0.37711999 -0.349609 -0.928179 -0.127505
1.45400000 1.28140104 -0.14124900 0.913033 -0.281045 -0.295607
1.44909000 1.30265296 -0.22765400 0.336166 -0.776882 -0.532397
1.45118403 1.30337095 -0.22615200 0.399991 -0.782169 -0.477722
1.41675103 1.28361404 -0.20105401 0.142903 -0.925401 -0.351014
1.42171395 1.28326595 -0.19970199 0.091517 -0.940372 -0.327605
1.29895604 1.35024405 -0.43957901 0.255508 -0.936863 -0.238753
1.29490304 1.35630500 -0.44453701 0.176628 -0.933210 -0.312924
1.44130504 1.35990298 -0.25283200 0.842770 0.536308 -0.045969
1.46379197 1.29527199 -0.18644100 0.826064 -0.560594 -0.057895
1.28376305 1.31668198 -0.39814901 -0.901476 0.413353 0.128379
1.27937102 1.31332099 -0.40078601 -0.771432 0.484388 0.412627
1.38491094 1.26472902 -0.20692100 0.310749 -0.932248 0.185335
1.38639605 1.26595497 -0.20608801 0.326793 -0.798651 0.505334
1.38403702 1.26515806 -0.20501800 0.305541 -0.933365 0.188347
1.38410401 1.26596498 -0.20795700 0.327142 -0.938345 0.111740
1.37970805 1.44400299 -0.23306800 0.759528 0.647538 -0.061739
1.32117796 1.27331495 -0.24928100 0.046544 -0.805352 -0.590967
1.36330295 1.27364099 -0.24915400 0.526218 -0.849406 -0.040053
1.34284198 1.26093304 -0.22035100 0.055058 -0.911815 -0.406893
1.33690596 1.31454206 -0.33333400 -0.262661 -0.866934 -0.423598
1.40738297 1.38325703 -0.16463199 0.916769 0.285313 -0.279520
1.30989504 1.24397802 -0.18823799 -0.156373 -0.705958 -0.690776
1.31471801 1.24145997 -0.18961900 -0.067726 -0.739218 -0.670052
1.29234302 1.25772297 -0.20411400 -0.163939 -0.798639 -0.579051
1.29079795 1.25490201 -0.20066300 -0.196114 -0.877353 -0.437939
1.37311995 1.26321101 -0.22193700 0.729004 -0.634123 -0.257761
1.37298298 1.26902497 -0.20817600 0.506876 -0.836724 -0.207290
1.41064095 1.27840996 -0.19613600 0.190116 -0.845790 -0.498492
1.36751604 1.27709794 -0.22902200 0.750317 -0.576050 -0.324331
1.37451196 1.28304195 -0.29125199 0.261472 -0.954307 -0.144672
1.28030598 1.29755998 -0.34106201 -0.997641 -0.041702 0.054533
1.27935898 1.30104101 -0.33619201 -0.942798 -0.029264 0.332079
1.27697504 1.26567495 -0.21521400 0.155164 -0.769792 -0.619148
1.28286695 1.26872897 -0.21570501 0.102188 -0.891696 -0.440949
1.29428506 1.27965701 -0.27164501 0.011586 -0.997440 -0.070569
1.29757297 1.28032303 -0.27255201 0.091254 -0.994996 -0.040679
1.26926506 1.28446400 -0.27520800 0.025267 -0.994218 0.104365
1.27363598 1.28603399 -0.26908499 -0.255502 -0.946860 -0.195384
1.29175699 1.25351596 -0.19677100 -0.165530 -0.871596 -0.461433
1.27954805 1.28322196 -0.31758800 -0.722887 -0.684763 -0.092377
1.28296006 1.27745700 -0.31606001 -0.557005 -0.826201 -0.084482
1.29761100 1.27858996 -0.25845200 0.119254 -0.984144 -0.131299
1.41405702 1.37174499 -0.25481501 0.170670 0.801999 0.572425
1.29849994 1.27501702 -0.24026500 -0.258079 -0.799262 -0.542748
1.30007505 1.27391601 -0.23970699 -0.312708 -0.801613 -0.509540
1.30527902 1.45213497 -0.19075701 0.339711 0.593275 0.729809
1.30257404 1.44681895 -0.18858300 0.416522 0.381680 0.825125
1.41581798 1.36708796 -0.24680200 0.020765 0.804290 0.593874
1.41840899 1.35131598 -0.22526699 -0.117210 0.964730 0.235708
1.40360904 1.38218296 -0.21452300 0.743649 0.631400 0.219821
1.42153299 1.37402701 -0.25304201 0.157382 0.857513 0.489798
1.39525998 1.41901803 -0.27018601 0.989447 0.117431 0.084876
1.39398396 1.42116594 -0.26823500 0.986375 0.131754 0.098519
1.27864897 1.47026205 -0.18723400 0.271420 0.883239 0.382387
1.31374502 1.43113601 -0.20198800 0.730451 0.545777 0.410570
1.31016099 1.43197203 -0.19604699 0.628390 0.332868 0.703082
1.38312697 1.44669402 -0.22599600 0.664375 0.717276 -0.210048
1.37881398 1.44490194 -0.23055600 0.684995 0.727541 -0.038292
1.35897899 1.46287405 -0.25597599 0.255135 0.824163 0.505631
1.42947400 1.32995498 -0.29741001 0.953354 -0.131268 -0.271819
1.39654398 1.41749501 -0.27846301 0.999604 -0.007061 0.027234
1.39581299 1.42013502 -0.27312601 0.992434 0.111776 0.050807
1.37050200 1.46576798 -0.28922200 0.429258 0.893934 -0.128919
1.33625603 1.45399296 -0.25143301 -0.186727 0.809150 0.557144
1.34070396 1.45267296 -0.24657400 -0.271064 0.800658 0.534294
1.28528500 1.49779105 -0.24223800 0.795399 0.519153 0.312762
1.28149796 1.49937296 -0.23848100 0.818182 0.477667 0.320021
1.33837903 1.46303701 -0.25847799 -0.330476 0.796654 0.506091
1.33574200 1.46208298 -0.25635001 -0.250568 0.834714 0.490375
1.34182501 1.46398699 -0.25630900 -0.385429 0.736415 0.556001
1.39394104 1.40113294 -0.27560499 0.855323 0.364793 -0.367898
1.39523005 1.39910495 -0.27280599 0.837021 0.425578 -0.343917
1.36484504 1.46601701 -0.27652800 0.248202 0.966617 0.063610
1.36691999 1.46498406 -0.28875899 0.330519 0.942302 -0.053142
1.27005100 1.52237904 -0.29716101 0.459138 0.692881 0.555975
1.34850001 1.47222495 -0.29470000 0.132796 0.972571 0.190973
1.32371795 1.45911205 -0.26020700 0.203340 0.871243 0.446753
1.32395601 1.46235001 -0.26772600 0.334476 0.816376 0.470803
1.38577402 1.47075999 -0.33893201 0.587774 0.727798 0.353316
1.38375998 1.46895194 -0.33591500 0.339784 0.768138 0.542689
1.36164999 1.48163605 -0.35480699 -0.035394 0.723448 0.689470
1.36131895 1.47589695 -0.35365999 -0.082773 0.652019 0.753671
1.33220100 1.44881105 -0.20597801 0.101200 0.206149 0.973273
1.31667900 1.47477102 -0.27800101 0.483555 0.839697 0.247150
1.28150797 1.50042999 -0.23198600 0.731036 0.472438 0.492330
1.28608501 1.49845898 -0.23183601 0.789930 0.518641 0.327143
1.32135701 1.42329895 -0.19026300 -0.456452 0.866812 0.200720
1.31989896 1.42256296 -0.19122800 -0.397375 0.880224 0.259419
1.32123399 1.42684102 -0.18956199 -0.361745 0.887100 0.286694
1.42855096 1.38412905 -0.28549701 0.751583 0.656737 0.061794
1.27786505 1.47653103 -0.20384400 0.367027 0.802972 0.469603
1.29303002 1.56474602 -0.40961599 -0.055813 0.679775 0.731294
1.28696001 1.55904305 -0.41465199 0.181874 0.756535 0.628153
1.29846501 1.57017696 -0.42045200 -0.619675 0.688710 0.376407
