0.19255701 -1.34824502 -0.26724100 -0.685051 0.394523 -0.612419
0.30060801 -1.41643798 -0.22955699 0.808973 -0.457939 0.368585
0.30468699 -1.41569996 -0.23436600 0.776839 -0.511971 0.366616
0.21427500 -1.41364098 -0.28933001 -0.761625 -0.637399 0.116832
0.21365499 -1.41376400 -0.29551199 -0.663518 -0.747685 0.026653
0.18598600 -1.32869804 -0.21984300 -0.409433 -0.664707 0.624924
0.22396199 -1.40200305 -0.22857700 -0.689178 -0.704459 0.169620
0.22439601 -1.40269303 -0.23137300 -0.600360 -0.779708 0.177828
0.22748201 -1.39231598 -0.21346000 -0.935294 0.324546 0.141047
0.22620800 -1.39461994 -0.21598800 -0.937529 0.238923 0.252895
0.22174400 -1.39788198 -0.22931699 -0.922564 0.128633 0.363770
0.22249401 -1.40113103 -0.22367500 -0.894715 -0.354622 0.271530
0.30818599 -1.40257800 -0.08723200 0.548503 -0.822012 0.153105
0.24902301 -1.37855697 -0.14032800 -0.953247 0.006166 0.302129
0.24684399 -1.37836599 -0.14626400 -0.947991 -0.157774 0.276441
0.24729800 -1.38306403 -0.14559200 -0.968765 0.018096 0.247319
0.20075101 -1.34335804 -0.19445200 0.000000 0.000000 0.000000
0.25009501 -1.37681401 -0.09971300 -0.767229 -0.640064 -0.040975
0.22323200 -1.39750004 -0.09333400 -0.873776 0.455183 -0.171243
0.22587900 -1.36307204 -0.13137700 0.000000 0.000000 0.000000
0.19348300 -1.29343402 -0.18013600 -0.913188 -0.165648 0.372354
0.18785200 -1.33011794 -0.22118901 -0.384046 -0.667547 0.637879
0.23155500 -1.42165804 0.02758600 -0.287922 -0.910536 0.296691
0.21557900 -1.41444397 -0.15155099 -0.416497 0.881905 -0.220847
0.19561400 -1.28720796 -0.17294800 -0.911442 -0.141842 0.386204
0.19632301 -1.28726602 -0.16831601 -0.940805 0.050470 0.335170
0.19662200 -1.28627205 -0.17049500 -0.950569 0.013704 0.310212
0.19189601 -1.32320797 -0.03218500 -0.863833 -0.502420 -0.036963
0.22271000 -1.24383295 -0.06905900 -0.782905 0.154778 -0.602581
0.22501101 -1.23737204 -0.07156200 -0.832347 0.217597 -0.509755
0.22235499 -1.39805496 -0.03484500 -0.891899 0.442460 -0.093517
0.22175001 -1.39957702 -0.03130200 -0.765461 0.632208 -0.119927
0.22392800 -1.39720297 -0.02746100 -0.782358 0.621076 0.046687
0.22425100 -1.39178896 -0.03564700 -0.951502 0.307217 0.016169
0.34163901 -1.37028694 -0.05289700 -0.184553 -0.978984 -0.086776
0.30874401 -1.35887301 0.05195100 0.661634 -0.741563 -0.111012
0.28509399 -1.39367795 0.01667000 0.914753 -0.362772 0.177829
0.21898600 -1.39540696 0.02905500 -0.461339 0.837244 -0.293579
0.22060201 -1.39379394 0.03433500 -0.851662 0.375230 -0.365888
0.26554599 -1.36966097 -0.03212100 -0.919404 0.392157 -0.030166
0.26632899 -1.37074995 -0.03683700 -0.860614 0.474155 -0.185797
0.23229399 -1.38355005 -0.05803300 -0.685473 0.725710 -0.058919
0.18247101 -1.31810796 0.05880400 -0.844778 0.534339 0.028846
0.18399601 -1.31645703 0.05660800 -0.854979 0.477650 0.202140
0.17738301 -1.30696499 0.02488700 -0.933463 -0.263284 -0.243573
0.32703301 -1.36501503 -0.01502700 0.026296 -0.998214 0.053645
0.26237300 -1.37041402 -0.06840400 -0.860283 0.156815 0.485100
0.33529899 -1.36051798 0.02127300 0.000000 0.000000 0.000000
0.22744600 -1.36180794 -0.06148800 -0.667759 -0.686975 0.286640
0.20024300 -1.40175104 0.07585600 -0.959009 0.279554 0.046383
0.15935500 -1.30028999 0.09119200 -0.921912 -0.381342 -0.068240
0.29189301 -1.39241099 -0.00603300 0.521507 -0.841756 0.139558
0.28958300 -1.39435995 -0.00468200 0.518752 -0.824800 0.224946
0.19767600 -1.32917500 0.05138800 0.127696 -0.972260 -0.195969
0.18413500 -1.31988895 0.11981300 -0.492961 -0.868550 -0.051091
0.19083500 -1.31950200 0.13866100 -0.737319 -0.634000 0.233249
0.22407500 -1.34862006 0.10288200 -0.914230 -0.171507 -0.367109
0.22183400 -1.35361600 0.10850700 -0.794190 0.330779 -0.509752
0.21815600 -1.35333705 0.11263400 -0.803860 -0.040684 -0.593426
0.12423900 -1.25933397 0.18400300 -0.921175 -0.051692 -0.385701
0.12813701 -1.26627600 0.18392000 -0.721581 -0.311555 -0.618267
0.21771000 -1.36931002 0.09537200 -0.908090 0.353065 -0.225206
0.18887199 -1.32913196 0.08687000 -0.873458 -0.466325 0.140042
0.20343100 -1.39739501 0.06340400 -0.730504 0.678221 -0.079876
0.16946900 -1.36372900 0.20114399 -0.881790 -0.468921 -0.050583
0.20459600 -1.39370894 0.18342499 -0.996423 0.080791 -0.024776
0.21264499 -1.37346005 0.11066200 -0.817508 0.497409 -0.290286
0.20229700 -1.39683199 0.13779600 -0.992820 0.094176 0.073752
0.20441900 -1.40916204 0.12866101 -0.798454 -0.588100 0.128878
0.21039300 -1.36112106 0.12321300 -0.914943 0.060459 -0.399028
0.23236699 -1.34978998 0.03862300 -0.950380 -0.309220 -0.034077
0.33147499 -1.35545194 0.06919000 0.000000 0.000000 0.000000
0.17595901 -1.32921898 0.02285600 0.027126 -0.999627 0.003014
0.22449000 -1.33794200 0.08203800 -0.677455 -0.730129 -0.089254
0.19170301 -1.32448304 0.09684100 -0.879538 -0.392409 0.269124
0.20697200 -1.36477900 0.13025200 -0.982539 -0.171137 -0.073002
0.20634501 -1.36184394 0.13115200 -0.954619 -0.011115 -0.297624
0.18119401 -1.19825304 0.03225000 -0.919507 0.324616 -0.221654
0.21002100 -1.37066400 0.12944600 -0.648450 -0.470839 0.598183
0.21326900 -1.37330604 0.12855101 -0.724411 -0.361388 0.587051
0.19682799 -1.36091602 0.20946801 -0.184394 -0.974653 0.126692
0.30485401 -1.38949001 0.12558199 0.657267 -0.526150 -0.539598
0.30791399 -1.38889396 0.12940601 0.699571 -0.600808 -0.386821
0.30659401 -1.13187301 0.14234900 0.337548 0.847760 -0.409102
0.30089599 -1.12841904 0.14420000 0.215512 0.931068 -0.294392
0.30248499 -1.40373802 0.12605301 0.873667 -0.390491 -0.290210
0.30322301 -1.40646803 0.13076700 0.719930 -0.507110 -0.473857
0.31061399 -1.37627804 0.11809700 0.230835 -0.705066 -0.670520
0.31057501 -1.38399506 0.12477200 0.453985 -0.713406 -0.533807
0.22109200 -1.17411005 0.08715000 -0.566109 0.819634 -0.087869
0.35157001 -1.17516100 0.14500500 0.866068 0.499706 -0.014816
0.17066300 -1.29911995 0.02841200 -0.858993 -0.293502 -0.419508
0.31356201 -1.35672295 0.06568300 0.683216 -0.344054 -0.644082
0.37722999 -1.38013506 0.19272700 0.567506 -0.004083 -0.823359
0.21173000 -1.37673795 0.07489600 -0.609386 0.785594 -0.107193
0.29108000 -1.42818403 0.11935100 0.755255 -0.651281 0.073648
0.34981701 -1.40263402 0.15332000 0.265537 -0.938417 0.221049
0.30742100 -1.37849200 0.09981600 0.675682 -0.709698 0.199458
0.30410901 -1.37925398 0.10469600 0.740653 -0.596057 0.310078
0.42744201 -1.36113000 0.16022500 -0.242743 -0.961884 0.125915
0.20395000 -1.18281305 0.11292400 -0.330860 0.914561 0.232614
0.31448901 -1.41510606 0.15596500 0.671728 -0.557819 -0.487463
0.30740601 -1.36312401 0.05878800 0.750767 -0.387651 -0.534860
0.30967000 -1.35930300 0.06239400 0.854583 -0.235276 -0.462962
0.30762100 -1.36233401 0.06175400 0.805549 -0.389162 -0.446815
0.45087099 -1.30218697 0.06987100 -0.381294 -0.905034 0.188489
0.45335799 -1.30077600 0.07217900 -0.464690 -0.869278 0.168578
0.45402199 -1.30152297 0.07608300 -0.058077 -0.996072 -0.066843
0.36819601 -1.35357499 0.16887900 0.473531 -0.670975 -0.570580
0.35723501 -1.39421999 0.19994999 0.053978 -0.998070 0.030694
0.21004701 -1.33255196 0.05272300 -0.381539 -0.899028 -0.214890
0.38774800 -1.36497402 0.14088200 -0.685373 -0.727593 -0.029554
0.46600300 -1.28145301 -0.05092700 -0.291700 -0.898792 -0.327237
0.46433499 -1.27841198 -0.05205900 -0.403907 -0.872862 -0.273809
0.40016001 -1.39902198 -0.03414000 0.310258 -0.933557 -0.179477
0.37479100 -1.34482396 0.13151699 -0.528103 -0.846372 0.069005
0.40006801 -1.37182403 0.19078700 0.137934 -0.990212 -0.021307
0.34330499 -1.35339606 0.08073200 0.000000 0.000000 0.000000
0.26200700 -1.37389004 -0.02630400 -0.402822 -0.871007 0.281215
0.26572701 -1.36923599 -0.02530900 -0.416980 -0.877302 0.237634
0.30270699 -1.39074504 0.10689000 0.982897 0.155958 0.097927
0.23579800 -1.36236203 0.05464200 -0.970110 0.110039 -0.216283
0.30058599 -1.36661601 0.01018800 0.743362 -0.668888 -0.001379
0.37436599 -1.24967396 0.07389000 0.712082 0.700712 0.044061
0.23756900 -1.42295206 0.04167600 -0.242445 -0.965970 0.090123
0.30489901 -1.38785899 -0.03297500 0.947717 -0.277150 0.158178
0.30472001 -1.39301598 -0.03802500 0.767787 -0.599590 0.225820
0.24517700 -1.37960899 0.00182400 -0.427921 0.796095 -0.427921
0.29613900 -1.40702903 0.06104500 0.000000 0.000000 0.000000
0.30136701 -1.37309301 0.06903900 0.198474 -0.951866 0.233578
0.30091000 -1.37632406 0.06448100 0.924753 -0.373381 -0.073606
0.30121601 -1.37217796 0.06016000 0.743472 -0.526831 -0.411946
0.21597999 -1.33547795 0.05823900 -0.305351 -0.930124 -0.204036
0.30510101 -1.36849403 0.07567100 -0.058213 -0.982485 -0.177014
0.20945500 -1.38645196 0.08198900 -0.989833 -0.089562 -0.110498
0.30017900 -1.36708903 0.02489400 0.767207 -0.638144 0.064531
0.17470901 -1.31442404 0.07523600 -0.503023 -0.804520 -0.315778
0.19283400 -1.32654798 0.00071000 -0.688216 -0.537512 -0.487277
0.19140200 -1.32051897 -0.00218100 -0.552846 -0.512517 -0.657030
0.23367700 -1.38684499 -0.01298900 -0.594660 0.801869 0.058189
0.30390099 -1.36443496 0.00386600 0.381623 -0.923026 0.048858
0.39394301 -1.39103305 -0.05062600 -0.745048 -0.640588 0.185878
0.18418001 -1.31049001 0.00569800 -0.923412 0.065481 -0.378184
0.35705999 -1.36117005 -0.01720300 0.174018 -0.941344 0.289117
0.36989501 -1.34948206 0.01958500 -0.105431 -0.921497 -0.373802
0.46927899 -1.25764501 0.01869500 0.889993 -0.452516 0.056052
0.40448201 -1.21747100 -0.12733400 0.820887 0.333733 0.463430
0.40661901 -1.30107701 -0.15937600 0.665988 -0.745961 -0.001379
0.22291701 -1.40485406 -0.08792200 -0.974392 0.200867 0.101057
0.41296300 -1.30240500 -0.20276099 -0.976760 0.173397 -0.125993
0.31975701 -1.36235404 0.07495200 0.887629 -0.352949 -0.295876
0.31857699 -1.35916805 0.07032400 0.716539 -0.431909 -0.547747
0.35384199 -1.40171802 -0.23542100 -0.075740 -0.896491 0.436540
0.35686699 -1.40216005 -0.23526600 -0.161260 -0.881847 0.443103
0.23074400 -1.25077498 -0.20412301 -0.964135 -0.155253 0.215267
0.34192601 -1.41442299 -0.22235000 0.562652 -0.785206 0.258601
0.25252700 -1.38310003 -0.11879700 -0.977255 -0.208815 0.036990
0.38853800 -1.38929796 -0.14750400 0.050868 -0.996798 0.061691
0.39077801 -1.38985395 -0.14986800 0.117702 -0.989398 0.085072
0.32299399 -1.37418497 -0.11646000 -0.122591 -0.963953 0.236149
0.31675199 -1.37285900 -0.11642800 0.074522 -0.945258 0.317701
0.32023999 -1.37449598 -0.11872600 0.009638 -0.794477 0.607217
0.23759100 -1.40488195 -0.21831501 -0.832994 -0.450224 -0.321589
0.23194000 -1.40339899 -0.21735200 -0.707925 -0.705088 -0.041142
0.19199300 -1.33895802 -0.26059899 -0.873469 0.242046 -0.422452
0.30605900 -1.44836402 -0.14044900 0.933557 -0.310258 0.179477
0.32238701 -1.36192000 0.08634400 0.881503 -0.361371 -0.303914
0.33120599 -1.40134501 -0.15243000 0.694645 -0.678893 0.237849
0.24626499 -1.44407403 -0.18589100 -0.401347 -0.914105 -0.057719
0.38522401 -1.39035404 -0.15212600 -0.094322 -0.985004 -0.144467
0.27811801 -1.46414196 -0.12180600 -0.238007 -0.939500 0.246358
0.28193000 -1.46528602 -0.12638099 0.335164 -0.870814 0.359651
0.28584701 -1.46403396 -0.12212000 0.235194 -0.965194 0.114384
0.40046301 -1.39535499 -0.15496901 -0.029133 -0.817121 0.575730
0.32587999 -1.37338495 -0.06512000 0.215195 -0.911329 0.350956
0.30629200 -1.40166199 -0.06924200 0.945752 -0.313502 0.085262
0.33040199 -1.38012505 -0.08004100 0.076482 -0.883019 0.463064
0.26015499 -1.37800896 -0.04797200 -0.569888 0.800883 -0.183884
0.40813300 -1.39604902 -0.02684600 0.387783 -0.907668 -0.160511
0.30231801 -1.41876101 0.03695200 0.980816 0.190484 0.041410
0.31872001 -1.40341496 -0.11302900 0.832138 -0.501122 0.237535
0.32589000 -1.37740803 -0.09105200 -0.084693 -0.949861 -0.300985
0.24178800 -1.45551503 -0.07801100 -0.842099 0.001352 -0.539322
0.23848400 -1.45786297 -0.07351800 -0.341401 -0.939175 0.037361
0.24822800 -1.44100201 -0.11436700 -0.525283 -0.844770 0.102178
0.24255601 -1.44293106 -0.17126501 -0.127153 -0.991346 0.032632
0.26623899 -1.46068203 -0.11031300 0.173528 0.280104 -0.944156
0.26245901 -1.46529496 -0.10839000 -0.550651 0.396140 -0.734749
0.26455900 -1.46701300 -0.11132600 -0.213369 0.488782 -0.845911
0.28524199 -1.45957506 -0.08289700 0.287447 -0.946010 0.149796
0.31087899 -1.38671303 -0.07858100 0.918922 0.385704 -0.082554
0.31247699 -1.39971697 -0.08633000 0.695378 -0.626658 0.351779
0.37486699 -1.39980102 -0.13965300 0.180551 -0.981673 -0.060981
0.29892901 -1.41610599 -0.15599699 0.641721 0.425036 -0.638387
0.33549899 -1.39387095 -0.17219999 0.627131 -0.679803 0.380229
0.35071200 -1.39031506 -0.16103500 -0.313497 -0.911328 0.266837
0.35687000 -1.39548099 -0.16297200 -0.819194 -0.531328 0.215900
0.31746200 -1.40670097 -0.11706200 0.550786 -0.792441 0.262055
0.33079299 -1.42050505 -0.21439600 -0.173819 -0.973135 0.150982
0.16808300 -1.27576399 -0.26987699 -0.945258 -0.314210 0.088084
0.17178400 -1.27873003 -0.26744100 -0.735563 -0.667208 0.117393
0.16800000 -1.27668798 -0.26666301 -0.900294 -0.434944 -0.017186
0.25901601 -1.46024299 -0.18316400 -0.867973 -0.493008 0.059717
0.26595399 -1.46394706 -0.16532500 -0.559743 -0.822981 0.096906
0.32344401 -1.40980804 -0.14989799 0.588241 -0.779690 0.214608
0.22813199 -1.46993303 -0.23043001 0.343238 -0.907024 0.243918
0.29855001 -1.46619594 -0.21685600 -0.036109 -0.959999 -0.277665
0.30297101 -1.42320895 -0.24815500 0.753149 -0.608494 0.250002
0.30469301 -1.42032003 -0.24843100 0.716257 -0.666539 0.206643
0.19571400 -1.43705297 -0.18077400 -0.586053 -0.619831 0.521874
0.19304000 -1.43530202 -0.18363699 -0.323679 -0.816304 0.478414
0.23014200 -1.44859004 -0.19098900 0.821272 -0.535876 0.195830
0.23153099 -1.44381297 -0.19115600 0.688528 -0.700851 -0.186380
0.29646501 -1.41925800 -0.21047901 0.996965 0.018127 0.075705
0.29470199 -1.41647005 -0.20379700 0.957314 -0.267006 0.110710
0.29492101 -1.41488302 -0.21285801 0.928617 -0.318905 0.189657
0.29408401 -1.41503596 -0.20752400 0.945366 -0.290778 0.147418
0.31368199 -1.47006798 -0.21264599 0.326472 -0.841954 0.429568
0.30041501 -1.46449995 -0.22606200 -0.415898 -0.886172 -0.204275
0.26271001 -1.45209205 -0.10392000 -0.482870 0.610738 -0.627563
0.26629701 -1.44962502 -0.10657900 -0.533772 -0.807660 0.250546
0.26199701 -1.44863904 -0.10386300 -0.578744 -0.811391 0.081857
0.26004899 -1.44820201 -0.10839300 -0.654979 -0.714953 -0.244631
0.22940101 -1.43730199 -0.05156200 0.729631 -0.662609 0.169079
0.23074199 -1.43666506 -0.04721200 0.653979 -0.746340 0.123645
0.22859000 -1.44128299 -0.05283400 0.813898 -0.444379 0.374297
0.39445600 -1.38450396 0.03690200 -0.728124 -0.671075 0.139620
0.24500300 -1.42227197 0.04870900 0.131320 -0.988966 0.068565
0.25410700 -1.42027497 0.04633300 -0.037003 -0.992355 0.117737
0.28951401 -1.43674099 0.17680299 -0.379083 -0.838387 -0.391667
0.26525301 -1.43290997 0.22037600 -0.481431 -0.842123 0.243008
0.31417200 -1.43623698 0.23586699 -0.378138 -0.908959 0.175513
0.30426899 -1.39602101 0.11451000 0.997533 0.070131 0.003140
0.24927799 -1.39966404 0.23201101 -0.845823 -0.526321 0.087007
0.41642800 -1.40065396 0.02153700 0.634549 -0.755704 0.162045
0.41810301 -1.39909995 0.01640500 0.767379 -0.638768 0.055731
0.31431499 -1.37555206 -0.02183000 0.503276 -0.190794 0.842799
0.31505999 -1.35668302 0.05205300 0.146033 -0.977295 0.153521
0.26735401 -1.44444597 -0.05458200 0.000000 0.000000 0.000000
0.25909999 -1.42167997 0.12445800 -0.627605 -0.774768 0.076467
0.26203999 -1.42445397 0.09447200 -0.669929 -0.737068 -0.089032
0.30893701 -1.37488699 -0.02255600 0.107850 -0.432801 0.895015
0.30862701 -1.37054002 -0.02506700 -0.247067 -0.904937 0.346478
0.30450100 -1.41066098 -0.07823100 0.956305 -0.261767 -0.130226
0.34702501 -1.38955998 -0.10066100 -0.439044 -0.890793 0.117172
0.39281401 -1.39509201 -0.06383700 -0.293221 -0.950668 0.101247
0.28126299 -1.43751299 0.09435600 0.233202 -0.965018 0.119822
0.35656101 -1.39584303 0.11248900 0.272688 -0.892569 -0.359114
0.34860700 -1.40607595 0.20305599 0.840345 -0.387972 -0.378548
0.36451900 -1.39150298 0.09345400 -0.082854 -0.962382 -0.258760
0.29756400 -1.41958702 0.10928300 0.981523 -0.187350 0.038884
0.41071799 -1.38370299 0.05913400 -0.271284 -0.915402 0.297397
0.41193900 -1.38753402 0.05673400 -0.625695 -0.629050 0.461304
0.28998801 -1.43937004 0.18463200 -0.496962 -0.867301 -0.028592
0.41480100 -1.37368000 0.32099101 0.654157 -0.543169 0.526352
0.44858101 -1.31245303 -0.24080400 0.004136 0.643833 -0.765155
0.25870401 -1.41708505 0.19052701 -0.761417 -0.608822 -0.222664
0.28081301 -1.45454097 -0.04051800 0.090237 -0.982981 0.160020
0.34801000 -1.37711704 -0.08016900 -0.621707 -0.684372 0.380940
0.34730899 -1.37493896 -0.07374300 -0.731258 -0.616049 0.292823
0.37704900 -1.36140096 0.09272100 -0.143001 -0.104547 0.984185
0.37209800 -1.36646402 0.09370900 0.263103 0.246219 0.932820
0.40317699 -1.39857304 -0.02582800 0.263618 -0.963266 -0.051224
0.43653300 -1.38668394 -0.07660700 0.913986 -0.405492 0.014342
0.37728801 -1.36138201 0.03331500 -0.734256 -0.626417 -0.261668
0.36287799 -1.38941205 0.12143200 0.913941 -0.374334 0.156797
0.35448599 -1.38353801 0.09499300 -0.880889 -0.045069 -0.471173
0.43002000 -1.38160503 0.11749500 0.533339 -0.797648 0.281615
0.42985201 -1.37641597 0.09217100 0.989367 -0.082544 -0.119747
0.41254801 -1.35826397 0.18901201 0.098475 -0.981102 0.166556
0.41320100 -1.35640001 0.19126000 0.225459 -0.972062 0.065297
0.41167599 -1.35702395 0.19294301 0.440378 -0.893260 -0.090298
0.44044799 -1.36065304 0.15971600 0.994384 -0.094439 0.047775
0.42508101 -1.38936603 0.06762500 0.727186 -0.684157 0.055937
0.38774899 -1.36987495 0.09239400 -0.208325 -0.779289 0.591025
0.43849000 -1.35380602 0.02352100 0.000000 0.000000 0.000000
0.48278800 -1.28562796 0.15845400 0.876528 0.332686 -0.347877
0.40778100 -1.40261400 0.00785400 -0.178994 -0.981464 0.068474
0.42269301 -1.38048899 0.04993600 0.848910 -0.498047 0.176918
0.39981899 -1.39394903 -0.10076500 -0.214947 -0.957247 -0.193586
0.39416400 -1.38879704 -0.14277700 0.163196 -0.985049 0.055182
0.39589399 -1.39396703 -0.05070200 -0.240999 -0.970053 0.030276
0.38721800 -1.26684797 -0.08259900 0.890341 0.309749 0.333691
0.38795501 -1.26865005 -0.08958200 0.929691 0.300492 0.213025
0.38690099 -1.26226902 -0.08596900 0.871551 0.358694 0.334272
0.44323799 -1.34836304 -0.22913200 0.806660 0.528932 0.263686
0.39315200 -1.39304197 -0.05566200 -0.401604 -0.899651 0.171294
0.37404099 -1.41457796 -0.21222700 -0.694959 0.044057 -0.717698
0.37269801 -1.41424298 -0.21264200 -0.663079 -0.001379 -0.748548
0.38727200 -1.43420994 -0.32192001 0.185147 -0.962500 0.198278
0.38687301 -1.43427896 -0.31448999 0.106876 -0.994267 0.003239
0.40656900 -1.40250504 -0.17596300 -0.149634 -0.970703 0.188002
0.39453599 -1.41997802 -0.23142000 -0.276364 -0.957635 0.080981
0.41624701 -1.41463697 -0.23672700 0.628857 -0.736030 0.250597
0.43900001 -1.38150001 -0.19082500 0.000000 0.000000 0.000000
0.40212601 -1.39756203 -0.07298400 -0.013721 -0.997402 0.070715
0.44341901 -1.31466401 -0.24225500 -0.044015 0.759622 -0.648874
0.46635899 -1.29012895 0.11014400 0.895989 -0.228043 -0.381053
0.46513700 -1.29329896 0.10426000 0.923046 -0.197087 -0.330368
0.42940599 -1.39324796 -0.06070000 0.544233 -0.825989 0.146809
0.42818901 -1.39354503 -0.05965600 0.515875 -0.829357 0.214568
0.42798001 -1.40390205 -0.23388800 0.000000 0.000000 0.000000
0.45071399 -1.37651706 -0.28891101 0.959898 -0.003641 0.280324
0.33932501 -1.39693999 -0.13937201 0.263290 -0.964588 -0.015773
0.38754401 -1.38899505 -0.18786600 -0.290152 -0.894263 0.340742
0.39853400 -1.32024002 -0.10838000 0.921290 0.315667 0.227109
0.39801800 -1.32171500 -0.10317200 0.918278 -0.361405 -0.161718
0.39896801 -1.32561302 -0.10420300 0.951294 0.145838 0.271607
0.42075399 -1.33191895 -0.04540900 0.000000 0.000000 0.000000
0.40813401 -1.32666194 -0.05424400 0.345029 0.555611 -0.756473
0.42219201 -1.39308298 -0.05102500 0.048486 -0.982732 0.178571
0.47682700 -1.28675902 -0.09437000 -0.246348 -0.757874 0.604102
0.38979200 -1.38999701 -0.12154900 0.199650 -0.979348 -0.031897
0.39447200 -1.39093196 -0.12824500 0.023109 -0.999720 0.005024
0.38685399 -1.38489401 -0.06858500 -0.464940 -0.824283 0.323094
0.45598599 -1.25272596 -0.15305901 0.796904 0.595119 0.103817
0.43358299 -1.39487505 -0.09919700 0.656924 -0.752991 0.038144
0.40210801 -1.31877196 -0.12383400 0.984858 0.172722 -0.014870
0.40150499 -1.32211494 -0.11543100 0.753444 0.583879 0.302337
0.45502400 -1.30718398 -0.24006800 -0.816525 0.552840 0.166301
0.43377301 -1.29799497 -0.03768400 0.522524 -0.818468 -0.238912
0.42599699 -1.33932304 -0.17927200 0.000000 0.000000 0.000000
0.47462401 -1.29960203 -0.16042399 -0.450209 0.839663 0.303774
0.47225699 -1.29957104 -0.16091000 -0.592530 -0.799260 0.100453
0.42761800 -1.30773902 -0.24102999 -0.271712 0.485976 -0.830662
0.42669901 -1.29890800 -0.14000900 0.000000 0.000000 0.000000
0.43200800 -1.29453099 -0.16173600 0.254793 -0.966243 0.038157
0.47145399 -1.28094006 -0.01849100 0.729074 -0.616909 0.296437
0.47184601 -1.27777803 -0.01740000 0.933132 -0.211884 0.290464
0.39443901 -1.26732695 -0.10160100 -0.464915 0.626041 0.626041
0.41415799 -1.32829797 -0.10142700 0.000000 0.000000 0.000000
0.43096900 -1.39375198 -0.07615000 0.640805 -0.759199 0.113954
0.42585400 -1.39740801 -0.08104800 0.340379 -0.918596 0.200809
0.43751001 -1.29426503 -0.11471200 0.166761 -0.962487 0.214032
0.43509600 -1.31082404 -0.24048001 0.092316 0.414733 -0.905248
0.38454399 -1.42528200 -0.27495199 -0.438855 -0.895595 0.072913
0.42438301 -1.22411001 -0.19853900 0.474354 0.879785 -0.031083
0.43508101 -1.39124894 -0.10918600 0.699775 -0.705693 -0.110958
0.46916699 -1.36976302 -0.35422999 0.929649 0.349809 0.115696
0.45413801 -1.27558303 -0.20060700 0.829641 0.548751 -0.102800
0.45650601 -1.27449799 -0.19767500 0.764307 0.639106 -0.085894
0.45606700 -1.27648103 -0.19928101 0.506408 0.818044 -0.272681
0.40564799 -1.30259001 -0.15218200 0.499469 -0.844448 -0.193488
0.45937601 -1.25771797 -0.18923900 0.962642 -0.264821 0.056478
0.44771999 -1.29069102 -0.25106001 0.806200 -0.141048 -0.574584
0.46647900 -1.28539705 -0.16974799 -0.589720 0.085070 0.803115
0.40014100 -1.20654702 -0.16005599 -0.059330 0.960636 -0.271402
0.46105999 -1.24412501 -0.22791800 0.970628 0.240583 -0.001185
0.33562401 -1.20936596 -0.11122000 -0.446332 0.894013 -0.039105
0.39118400 -1.25595796 -0.10521400 0.570376 0.386278 0.724887
0.43043801 -1.29852998 -0.08434200 0.688318 -0.724916 -0.026744
0.46953300 -1.27956200 -0.06641500 -0.325971 -0.945191 -0.018879
0.46530199 -1.27502000 -0.06776400 -0.076746 -0.473034 -0.877695
0.46820599 -1.27919900 -0.07214100 -0.440725 -0.879985 0.177168
0.47043300 -1.28410995 -0.04759200 0.015648 -0.968952 -0.246752
0.46960601 -1.28955400 -0.19280601 -0.707710 0.612913 0.351403
0.47210199 -1.28951705 -0.18998000 -0.823280 0.407674 0.394984
0.43731901 -1.35468304 -0.07166800 0.000000 0.000000 0.000000
0.43972000 -1.35541403 -0.08360800 0.880605 0.408158 0.240709
0.48190701 -1.27763498 -0.10091200 -0.583667 -0.637492 0.502929
0.48247501 -1.27801895 -0.09593500 0.804587 0.593365 -0.023623
0.49016199 -1.28526497 -0.10700000 0.646265 0.763010 -0.012508
0.48040199 -1.29002202 0.13663100 0.997601 -0.060816 0.033076
0.48041499 -1.28432405 -0.08966900 0.519186 -0.696143 0.495814
0.43084300 -1.32339001 0.08240900 0.871637 0.242372 -0.426033
0.43309200 -1.32535195 0.08632900 0.952774 -0.003688 -0.303658
0.46856099 -1.25612104 0.02722700 0.947587 -0.319200 0.013769
0.44381800 -1.30085897 0.04224900 0.942783 -0.205073 -0.262878
0.47411099 -1.28020895 -0.02986800 0.757304 -0.637335 -0.142463
0.41368499 -1.36062098 0.18388800 0.085232 -0.962993 0.255696
0.41443199 -1.35905600 0.18709300 0.098475 -0.981102 0.166556
0.48103100 -1.28032899 -0.08853000 0.856712 0.012181 0.515651
0.42313501 -1.24517298 -0.07437900 -0.342082 0.939124 -0.032030
0.46974501 -1.25886405 -0.01446600 0.960454 0.120869 0.250836
0.41047400 -1.38044500 0.07132800 -0.452062 -0.866825 0.210366
0.30968800 -1.36835802 -0.01927300 0.210191 -0.695965 0.686624
0.38679001 -1.26317203 -0.08187100 0.837958 0.343015 0.424461
0.45946500 -1.29195702 0.09209200 0.757273 -0.188934 -0.625173
0.42590699 -1.31521297 0.03615300 0.730063 0.420239 0.538895
0.46890801 -1.25380898 0.06010100 0.825682 0.550942 0.121295
0.37479901 -1.35355103 0.02037500 -0.683205 -0.719085 -0.127073
0.37180099 -1.35107195 0.02279700 -0.384537 -0.812156 -0.438787
0.37877801 -1.35935605 0.02385700 -0.740099 -0.648161 -0.179279
0.31500700 -1.19025004 0.00408300 0.422691 0.903824 0.066598
0.47041401 -1.25192702 0.00676700 0.992618 0.094373 -0.076180
0.40033299 -1.37130499 0.15523800 -0.042654 -0.987960 0.148713
0.42156699 -1.36032403 0.15916800 -0.097305 -0.983861 0.150162
0.40781900 -1.25190794 0.07116300 0.000000 0.000000 0.000000
0.45744899 -1.31173694 0.13949101 0.584768 -0.800910 -0.128797
0.45243800 -1.31543195 0.14015600 0.810759 -0.561063 -0.166965
0.45539799 -1.30022299 0.07662400 -0.715372 -0.604563 0.350353
0.45226899 -1.29958200 0.06966900 -0.381294 -0.905034 0.188489
0.45946300 -1.23650599 0.07098700 0.919621 0.277757 0.277757
0.45803300 -1.23374104 0.07614500 0.982728 0.088023 0.162783
0.34968799 -1.37793601 0.10999600 -0.366299 0.779394 -0.508301
0.48622000 -1.29114199 0.16467500 0.909427 0.248819 -0.333214
0.41212800 -1.36263502 0.20380200 0.477650 -0.854979 -0.202140
0.42367300 -1.38075197 0.06409100 0.869292 -0.454638 -0.193999
0.51712197 -1.29758203 0.19054601 0.699946 -0.687585 -0.193142
0.48620099 -1.28510594 0.20902900 0.966163 -0.140980 0.215996
0.48679700 -1.27542198 0.19578201 0.964462 0.157490 -0.212156
0.50936002 -1.29717398 0.16398300 0.735455 -0.627904 -0.254641
0.44850299 -1.23319995 0.18981300 0.591025 0.779289 -0.208325
0.41300800 -1.24311197 0.11342500 -0.480024 0.772920 -0.414936
0.40888199 -1.24625695 0.11091600 -0.126293 0.777074 -0.616608
0.41014400 -1.24219596 0.11771000 -0.239040 0.851103 -0.467422
0.38381901 -1.19403398 0.14011700 0.909800 0.380151 0.166583
0.42186499 -1.30387402 0.06945900 0.704008 -0.595192 -0.387452
0.45015299 -1.22664595 0.11186700 0.968809 0.150532 0.196850
0.44413701 -1.23321295 0.01684200 -0.523339 0.831009 0.188523
0.39169699 -1.25815105 0.02313100 0.168256 0.985169 0.033651
0.46736401 -1.26750302 0.13498700 0.883975 0.387394 0.261752
0.47617400 -1.27625406 0.13331801 0.792463 0.605493 0.073350
0.44188601 -1.29055595 0.01564000 0.655197 -0.755354 0.012520
0.40928000 -1.20438004 -0.15406001 0.307098 0.918410 -0.249427
0.44749200 -1.29233503 -0.00888100 0.169096 -0.975744 0.139034
0.46899399 -1.25657797 0.04785400 0.979454 0.073853 -0.187658
0.46761200 -1.25951803 0.04506200 0.798367 -0.427409 -0.424183
0.40182301 -1.25882006 0.04398600 -0.517259 0.855828 -0.001344
0.39884499 -1.25414705 -0.03926400 -0.157367 0.940095 -0.302418
0.39215699 -1.25404894 -0.03945800 0.019727 0.908743 -0.416891
0.46121100 -1.26878297 0.04973600 0.824619 -0.565648 -0.006815
0.47010100 -1.26883197 0.13009200 0.707590 0.679841 0.192699
0.41021600 -1.23921502 -0.11925800 0.444221 0.776166 0.447475
0.41573900 -1.24068999 -0.11957700 0.084261 0.952799 0.291673
0.40833700 -1.21384799 0.16103700 -0.441945 0.729953 -0.521395
0.33747900 -1.18639696 -0.01385800 -0.261572 0.954671 0.142072
0.40721801 -1.25153995 0.06759600 -0.422600 0.906315 0.001300
0.41092601 -1.24885702 0.04524500 -0.552257 0.821723 -0.140655
0.32224199 -1.18946505 0.02581000 0.000000 0.000000 0.000000
0.39502099 -1.22018099 -0.19362400 -0.403966 0.893975 -0.193962
0.39660901 -1.24128306 0.11375400 0.434587 0.779652 -0.450863
0.38085499 -1.18333101 0.12871800 0.573367 0.772387 -0.273257
0.37652701 -1.18010104 0.13130400 0.358607 0.898732 -0.252353
0.45530599 -1.25154698 0.12054200 0.670902 0.737558 -0.076799
0.44809201 -1.23582494 0.18415099 0.342888 0.883655 -0.318720
0.43949401 -1.21635997 0.17247701 0.979553 0.197806 0.036718
0.44995299 -1.22434700 0.07651900 0.470107 0.881959 0.033869
0.24309300 -1.14912295 -0.24872699 -0.418560 0.898131 -0.134791
0.38676101 -1.16837502 -0.39209899 -0.517151 0.684514 0.513804
0.26676899 -1.12159896 -0.22031800 -0.340417 0.896382 0.283929
0.23983100 -1.15935302 0.06840100 -0.774912 0.595491 -0.211902
0.35759500 -1.18104994 0.02757300 0.026265 0.822505 -0.568151
0.38121700 -1.19098198 0.14986700 0.789247 0.598995 0.135257
0.38050801 -1.18984199 0.15397300 0.803248 0.519192 0.291947
0.39354399 -1.17427504 0.18183801 -0.546800 0.749197 0.373783
0.29507801 -1.12467206 0.19580001 0.010101 0.988746 -0.149266
0.22883500 -1.16858602 0.05702200 -0.058779 0.994800 0.083177
0.34510899 -1.16649497 0.16395400 0.823725 0.566909 -0.009562
0.37786099 -1.17634106 0.20309199 0.272584 0.903212 -0.331521
0.28586999 -1.13021100 0.05557400 0.642197 0.765858 -0.032321
0.31590900 -1.12759697 0.17424101 -0.021144 0.991552 -0.127978
0.33770701 -1.15341997 0.20051099 0.068702 0.988609 0.133911
0.25951499 -1.13163400 0.15680100 0.000000 0.000000 0.000000
0.24779201 -1.13199198 0.21860200 -0.839650 0.480458 0.253276
0.27802801 -1.12714803 0.03384400 0.077991 0.996789 0.018162
0.29241601 -1.13702703 0.06207300 0.855516 0.517634 -0.012164
0.27898201 -1.12911797 0.07523300 0.154929 0.986655 0.050090
0.45038599 -1.24292803 -0.10750300 0.993758 0.061620 -0.092990
0.25310099 -1.14624298 -0.08150600 -0.671347 0.737759 -0.070744
0.28862399 -1.13702798 -0.01407900 0.846947 0.369662 -0.382140
0.28983000 -1.14277899 -0.01176700 0.893999 0.299990 -0.332824
0.23611800 -1.14118695 0.14178900 -0.807869 0.574517 -0.131445
0.30977401 -1.16004801 0.12075100 0.055828 0.725760 -0.685679
0.36029300 -1.18029797 0.13514499 -0.088983 0.995963 -0.011793
0.29569000 -1.13168204 0.12987299 0.460339 0.862199 -0.211426
0.23020500 -1.16228604 0.17444099 -0.955070 -0.267420 0.127782
0.33468699 -1.19513798 0.04501300 -0.180548 0.927932 -0.326106
0.30087900 -1.16640401 0.08010100 0.813176 0.569076 -0.122050
0.34853899 -1.15227604 0.21039200 0.047731 0.986045 -0.159490
0.40177700 -1.21825504 0.16091000 0.098630 0.702185 -0.705130
0.33353099 -1.15197599 0.21567900 0.210609 0.840922 -0.498492
0.33697301 -1.15395796 0.21269400 -0.116106 0.968400 -0.220729
0.35340700 -1.15904999 0.19494900 0.498543 0.820486 -0.279747
0.34854400 -1.15829396 0.19114301 0.563737 0.803819 -0.189938
0.31155401 -1.16539800 0.11477800 -0.070654 0.635886 -0.768542
0.33792201 -1.15031505 0.11770600 0.508695 0.819824 -0.262904
0.31176600 -1.18757105 0.00092900 0.285593 0.947954 -0.140785
0.30336201 -1.17706299 0.06943000 0.859682 0.467966 -0.204829
0.35731101 -1.17878401 0.05237900 0.517419 0.855044 -0.034312
0.36190701 -1.18461704 0.04891600 0.745908 0.653230 0.130048
0.35589501 -1.17743802 0.04777900 0.406718 0.902716 -0.140297
0.30331600 -1.16699398 -0.21770599 0.996798 0.061691 0.050868
0.23121800 -1.24706101 -0.09513100 -0.876398 0.273026 0.396717
0.29185101 -1.15124297 0.06041400 0.000000 0.000000 0.000000
0.29262200 -1.19368601 -0.02796000 0.339052 0.939805 -0.042543
0.28445101 -1.13259602 -0.01499400 0.658617 0.700079 -0.275885
0.28503099 -1.15828395 -0.04483300 0.000000 0.000000 0.000000
0.28120700 -1.16353202 -0.04556800 0.832406 -0.522323 -0.185146
0.27589700 -1.19515204 -0.04621500 0.620036 0.737383 -0.267995
0.34753501 -1.18516600 0.01448700 0.067912 0.971766 -0.225963
0.29059699 -1.19176900 -0.00201500 0.490471 0.792794 -0.361823
0.19972700 -1.18252599 -0.13033900 -0.860315 0.460937 -0.217706
0.20057100 -1.18213606 -0.12798899 -0.787783 0.559122 -0.258418
0.32818499 -1.18762600 -0.05426900 0.519836 0.833244 -0.188346
0.30483699 -1.19663894 -0.09112700 -0.374900 0.910879 0.172482
0.45442200 -1.23211300 -0.04869300 0.764316 0.644587 0.018099
0.31879601 -1.19554698 -0.04760400 -0.642669 0.746473 0.172498
0.31968999 -1.19398499 -0.05334700 -0.768678 0.629992 0.110654
0.29068500 -1.19380701 -0.01645700 0.407052 0.912902 -0.030298
0.37788999 -1.23120999 -0.20159100 -0.686249 0.726032 0.044045
0.37883100 -1.23021495 -0.19550499 -0.714362 0.603203 -0.354729
0.30455801 -1.18565404 0.00639700 0.170880 0.985142 -0.017203
0.31720799 -1.20019305 -0.02585000 -0.302040 0.951999 -0.049703
0.29290199 -1.19170105 0.00137600 0.093773 0.922783 -0.373734
0.36067700 -1.19716501 -0.10230000 0.067787 0.983508 -0.167684
0.25440601 -1.23527706 -0.20070601 -0.692674 0.395105 0.603403
0.22028200 -1.23511100 -0.11526200 -0.858836 0.440859 0.260854
0.31490299 -1.18887401 -0.11361200 0.372162 0.921478 -0.111237
0.30662400 -1.18193805 -0.22531900 0.940210 -0.223595 -0.256926
0.29150099 -1.12875402 -0.21481700 0.550919 0.804002 -0.223762
0.29200900 -1.13349402 -0.22053599 0.581702 0.787370 -0.204133
0.41904700 -1.21428895 -0.30462101 -0.272020 0.960293 -0.061995
0.41515899 -1.21624303 -0.30648801 -0.331183 0.943559 -0.003749
0.30736801 -1.17271602 -0.24015300 0.987802 -0.014710 0.155016
0.36321801 -1.20547295 -0.12943800 -0.164113 0.962361 0.216630
0.38432401 -1.22387803 0.11669100 0.000000 0.000000 0.000000
0.37744001 -1.22129905 -0.17025000 0.257504 0.919248 -0.297784
0.21926901 -1.21651399 -0.11281600 0.144990 0.986642 0.074263
0.31737399 -1.19480205 -0.14778399 0.302146 0.885392 0.353255
0.32075599 -1.21370196 -0.18439300 0.720121 0.487287 -0.493940
0.22727101 -1.24143505 -0.10354000 -0.845609 -0.089837 0.526188
0.23982200 -1.15308201 -0.16885801 -0.288886 0.951082 0.109487
0.31377399 -1.19947600 -0.07126000 -0.506082 0.860200 0.062737
0.31811401 -1.19164097 -0.07443900 -0.599161 0.764987 0.236223
0.29829499 -1.19694304 -0.11480100 0.012415 0.987540 0.156878
0.29825300 -1.18574202 -0.16183500 0.415916 0.909243 -0.017057
0.30026600 -1.13821304 -0.22232699 0.909677 0.406277 -0.086180
0.26679400 -1.12470102 -0.21057600 -0.573636 0.756813 0.313330
0.22332799 -1.17059302 -0.06644900 -0.763410 0.643994 0.049757
0.22215800 -1.17192805 -0.05720100 -0.739762 0.671607 -0.041177
0.23455501 -1.15598702 -0.08843900 -0.780019 0.621420 0.073532
0.25529799 -1.13995302 -0.05264400 -0.944309 0.327513 -0.031859
0.25239801 -1.14040101 0.00857600 -0.782802 0.622085 -0.015240
0.30057901 -1.14383900 -0.15461101 0.883935 0.154797 0.441244
0.27551600 -1.18905401 -0.04932900 0.860598 0.350729 -0.369269
0.25120401 -1.12222505 -0.25233901 -0.767229 0.640064 -0.040975
0.24954601 -1.15363097 0.00404800 -0.794266 0.592359 0.135099
0.24952200 -1.15455496 0.00934200 -0.560121 0.825216 0.072687
0.26144201 -1.12901902 -0.27358001 -0.889870 0.279674 -0.360435
0.26409101 -1.12340605 -0.27552900 -0.929584 0.087190 -0.358151
0.29270700 -1.14639997 -0.11872500 0.988542 0.104366 0.109056
0.28523901 -1.13450301 -0.09792100 0.672544 0.726709 0.139925
0.28940099 -1.14500594 -0.01706200 0.994388 -0.072542 0.077006
0.28136000 -1.13202405 -0.04832200 0.605905 0.795508 -0.006870
0.27879900 -1.13084900 -0.05482700 0.344659 0.938727 -0.001253
0.29092699 -1.19489205 -0.07275200 0.102752 0.982788 -0.153523
0.28831199 -1.18908095 -0.00155600 0.849895 0.431914 -0.301875
0.23142099 -1.16137695 -0.02408300 -0.367497 0.929702 -0.024500
0.29104301 -1.14555895 -0.10973500 0.958537 0.241282 0.151625
0.30147800 -1.15827000 -0.25383699 0.859459 0.492989 -0.135245
0.28534999 -1.16138506 -0.17252500 0.846875 -0.421107 0.324765
0.28588599 -1.16490698 -0.17816100 0.937612 -0.140574 0.317997
0.36828700 -1.20959306 -0.16129699 0.544523 0.835878 -0.069303
0.30156001 -1.12973499 -0.20993400 0.478043 0.859886 -0.179081
0.30135500 -1.13080704 -0.20859800 0.438509 0.884254 -0.160642
0.30855700 -1.18908703 -0.12740800 -0.027898 0.999162 0.029965
0.31058499 -1.18977296 -0.13502599 0.429044 0.896068 -0.113943
0.37121901 -1.20863998 -0.14357200 0.286667 0.677430 -0.677430
0.36960500 -1.20934904 -0.14793999 0.402913 0.841884 -0.359016
0.38492000 -1.21562898 -0.08756200 0.913435 0.384678 0.132889
0.31036001 -1.18944895 -0.11142300 -0.001083 0.993508 -0.113760
0.37551799 -1.22920299 -0.02559800 0.966338 0.239997 0.092697
0.33749899 -1.19239104 0.00418400 -0.571469 0.807219 0.147717
0.33629799 -1.19571102 0.01181800 -0.384269 0.921449 0.057175
0.31469601 -1.19758797 -0.07498300 -0.616632 0.754008 0.226358
0.34454900 -1.20541894 -0.04895600 0.255011 0.958581 -0.126852
0.36365101 -1.19663405 -0.08539900 -0.159645 0.978910 0.127469
0.39833501 -1.25520504 -0.10762200 -0.293767 0.391182 0.872168
0.39484400 -1.25849998 -0.10672200 -0.128053 0.412304 0.902002
0.40000701 -1.25825298 -0.10139200 -0.703189 0.502755 0.502755
0.33082101 -1.19393396 -0.00243600 -0.139877 0.960835 0.239228
0.33385700 -1.19442999 0.00256700 -0.622559 0.757831 0.195222
0.34189799 -1.18690300 -0.00440100 -0.322963 0.942525 0.085684
0.32785201 -1.20077896 -0.17792800 0.502038 -0.135332 -0.854192
0.33202001 -1.19471002 -0.18005100 -0.189244 0.669276 0.718510
0.37552601 -1.21505797 -0.22333799 0.821007 0.570717 0.015127
0.37298799 -1.21220005 -0.21968000 0.691458 0.722189 -0.018159
0.31564400 -1.18664002 -0.16113500 0.170872 0.983989 0.050673
0.45602101 -1.25201797 -0.03526000 0.891366 0.364582 -0.269344
0.45441499 -1.24781096 -0.03505200 0.974325 0.072674 -0.213095
0.45674199 -1.24662197 -0.02901000 0.934752 0.152809 -0.320762
0.35737601 -1.20863795 -0.19515900 -0.019101 0.989903 -0.140452
0.46726400 -1.25072205 0.00232200 0.781199 0.510598 -0.359190
0.36429301 -1.20002604 0.05720900 0.984470 -0.126523 0.121703
0.36998799 -1.21124697 -0.18869901 0.575483 0.813713 0.081802
0.37061700 -1.21149802 -0.18379900 0.668937 0.742478 0.035356
0.36930400 -1.22918701 0.01042000 0.793262 0.474670 -0.381345
0.37125599 -1.23213506 0.00677900 0.527969 0.848864 -0.026056
0.44507399 -1.29150701 -0.00596800 0.106098 -0.974853 0.195969
0.44810101 -1.24360394 -0.13188000 0.942749 0.332809 -0.021512
0.38032401 -1.20324898 -0.13644800 0.630440 0.760458 -0.155720
0.40969500 -1.21240699 -0.23420499 -0.090848 0.987526 -0.128603
0.48934501 -1.29506600 -0.13312300 0.895211 -0.093280 -0.435771
0.37092900 -1.20103502 -0.10615800 0.271456 0.957241 0.100010
0.37168199 -1.20262098 -0.10291500 0.411886 0.905594 0.101238
0.43215600 -1.22522295 -0.27551201 0.735434 0.670845 0.095416
0.37886399 -1.21705496 -0.24854900 0.837741 0.523403 0.155686
0.33999401 -1.20841002 -0.10651400 -0.397643 0.917539 0.001287
0.45214099 -1.23005199 -0.09126900 0.940079 0.336764 -0.053310
0.43832999 -1.22374701 -0.18152601 0.094439 0.994384 0.047775
0.35113099 -1.21024799 -0.17678100 -0.295618 0.904503 -0.307384
0.36274201 -1.20206404 -0.03964900 0.183434 0.982598 -0.029209
0.43678600 -1.39238906 -0.18841200 0.864915 -0.492817 -0.095155
0.35197401 -1.36822402 -0.04232500 0.048928 -0.921697 0.384812
0.35542300 -1.36959600 -0.04382300 -0.260568 -0.803548 0.535178
0.44147700 -1.23032498 -0.02570500 -0.464654 0.885371 0.014645
0.46034801 -1.24256098 -0.00289900 0.966985 0.217604 -0.132622
0.48041201 -1.28365898 -0.10827900 -0.288157 0.587458 -0.756213
0.47308499 -1.27760506 -0.21480200 -0.948187 -0.317711 0.001236
0.47274399 -1.27936304 -0.21938901 0.448158 0.889336 -0.090749
0.44490501 -1.29050004 0.00149600 0.400246 -0.895096 0.196484
0.44891399 -1.28999102 -0.00248100 0.091861 -0.956129 0.278170
0.41257000 -1.30455697 -0.05273400 0.727869 -0.681379 0.077000
0.42951500 -1.24160397 -0.07541000 -0.633281 0.769501 -0.082602
0.43534100 -1.23659396 0.00814500 -0.648440 0.745176 0.155686
0.46084499 -1.27569306 -0.05347500 -0.331521 -0.924026 -0.190448
0.44702700 -1.22584903 -0.07434000 0.307321 0.951586 -0.006171
0.28441101 -1.19587100 -0.08850500 0.653232 0.755700 -0.046964
0.39344299 -1.20342100 -0.14369000 -0.373730 0.927212 -0.024570
0.32804501 -1.21258605 -0.17728899 0.515261 0.521975 -0.679742
0.32649899 -1.20835805 -0.17535099 0.543098 0.250541 -0.801420
0.32083499 -1.20881999 -0.17892800 0.689795 -0.026693 -0.723512
0.43931901 -1.22793102 -0.24684200 0.329479 0.930047 -0.162654
0.43063700 -1.22425699 -0.24367300 0.523205 0.852076 -0.014949
0.45201099 -1.23039901 0.02037200 -0.123322 0.990034 0.068000
0.46343699 -1.27083099 -0.32944399 0.985656 -0.017132 0.167893
0.40278301 -1.22275102 -0.29733399 0.572259 0.803565 0.163717
0.40483701 -1.22203398 -0.29871199 0.515568 0.805674 0.291682
0.45519900 -1.23894501 -0.20467500 0.638749 0.768473 0.038071
0.33662200 -1.20292497 -0.29905400 0.058148 0.968719 0.241252
0.41782501 -1.17976105 -0.39045501 0.687521 0.431157 0.584310
0.45561501 -1.32021201 -0.33699200 0.757242 0.595992 0.267169
0.19529000 -1.28090405 -0.27578700 -0.192043 0.631436 -0.751271
0.46778500 -1.24506402 -0.30476600 0.915175 -0.397609 0.066044
0.34983400 -1.20270801 -0.29202801 0.556783 0.821218 -0.124872
0.48692799 -1.23914301 -0.38834301 0.932837 0.081406 0.350982
0.41023499 -1.21024203 -0.33623299 -0.001156 0.979315 0.202338
0.41156301 -1.20803404 -0.34428599 -0.230242 0.956900 0.177007
0.40693700 -1.21034598 -0.34104800 -0.289854 0.956643 0.028612
0.46349999 -1.21513605 -0.35725999 0.701445 0.660089 0.268808
0.42437899 -1.21083903 -0.35418701 0.683659 0.683659 0.255381
0.39300001 -1.21361399 -0.29326400 0.078450 0.955544 0.284220
0.27422100 -1.11748195 -0.29428101 0.196251 0.965659 0.170258
0.30545399 -1.18163204 -0.26091200 0.916351 -0.397662 -0.046549
0.30377701 -1.18912899 -0.25393701 0.941785 -0.334430 -0.034596
0.45528400 -1.22989702 -0.27039599 0.391884 0.902913 0.176563
0.32929400 -1.21994698 -0.21340799 0.090157 0.949916 -0.299217
0.31136501 -1.19060695 -0.15433601 0.134546 0.922406 0.362027
0.34217900 -1.19798100 -0.36299199 -0.277450 0.944424 0.176311
0.45319200 -1.21816397 -0.33033201 -0.169458 0.938217 0.301717
0.33492300 -1.22126901 -0.22681400 -0.436416 0.880179 0.186616
0.33057600 -1.21862805 -0.23250200 -0.236926 0.883628 0.403817
0.25322500 -1.13854504 -0.29234001 -0.734581 0.630318 0.251179
0.22303900 -1.14704895 -0.27650601 -0.115030 0.978371 0.171926
0.31465101 -1.17072594 -0.29630199 0.800760 0.595217 -0.067087
0.31556901 -1.17175400 -0.29051200 0.847443 0.489199 0.206216
0.30301899 -1.15266597 -0.33841199 0.960376 0.137571 0.242387
0.30072001 -1.14953601 -0.33047301 0.926188 0.186924 0.327469
0.28347301 -1.09879005 -0.34870699 0.805297 0.534269 -0.257010
0.25794399 -1.12400103 -0.23843899 -0.737035 0.567076 0.367701
0.28457299 -1.11544096 -0.23886500 0.470370 0.873134 0.128021
0.22636600 -1.12476099 -0.33746099 -0.371617 0.587711 0.718677
0.24938300 -1.14391506 -0.30379400 -0.705713 0.708486 -0.004159
0.30307400 -1.15727496 -0.24186000 0.986093 0.057454 -0.155946
0.28733701 -1.13384604 -0.34567699 0.604148 0.796814 0.009633
0.30189300 -1.16228199 -0.20908700 0.898395 0.061347 0.434883
0.26954499 -1.09772599 -0.36813799 0.725463 0.339199 -0.598872
0.27090800 -1.10153401 -0.36952400 0.524965 0.672558 -0.521610
0.21497799 -1.14085901 -0.33660001 -0.715702 0.591232 0.371772
0.22172201 -1.13808703 -0.33168799 -0.441420 0.773707 0.454451
0.27135101 -1.11796200 -0.23411600 -0.191761 0.904015 0.382080
0.23004100 -1.08134997 -0.37774700 -0.757418 0.373008 0.535894
0.23155400 -1.08437395 -0.37283799 -0.608269 0.604899 0.513912
0.25199500 -1.12546098 -0.33765101 -0.255855 0.959780 -0.115589
0.25606301 -1.12530398 -0.34012800 -0.566049 0.794319 -0.220558
0.21964701 -1.11588395 -0.35387501 -0.427687 0.724921 0.539975
0.22288100 -1.11750996 -0.34811100 -0.387921 0.748016 0.538506
0.37912899 -1.19584596 -0.32502401 0.720806 0.693136 0.001384
0.27631101 -1.09290695 -0.33992499 0.144400 0.946024 0.290150
0.27273300 -1.09219897 -0.34088999 0.037941 0.924985 0.378105
0.25259399 -1.09994996 -0.34446999 -0.762537 0.599696 0.242697
0.24860600 -1.12386703 -0.32780701 -0.466539 0.831657 0.301144
0.24909000 -1.12390196 -0.32530200 -0.504260 0.622315 0.598704
0.28366101 -1.12533498 -0.32632399 0.935934 0.290654 0.198868
0.26303500 -1.11898994 -0.31814900 -0.733494 0.646653 0.209348
0.18853299 -1.17420197 -0.31341901 -0.935957 0.344548 0.072606
0.25153300 -1.12100506 -0.32552999 -0.514122 0.645602 0.564691
0.27048501 -1.11019695 -0.24432100 0.096678 0.829703 0.549769
0.27500999 -1.11127698 -0.24428301 0.257761 0.872769 0.414528
0.40852401 -1.20243204 -0.36332199 -0.255221 0.784451 0.565243
0.40096501 -1.20495999 -0.36572900 -0.078539 0.823947 0.561198
0.40379900 -1.20622504 -0.36025301 -0.192236 0.856867 0.478355
0.19284700 -1.17302799 -0.26008600 -0.342732 0.875870 0.339685
0.28604501 -1.11832500 -0.25702000 0.871023 0.318816 -0.373731
0.19917800 -1.16626799 -0.27094901 -0.552444 0.804814 0.216977
0.22455101 -1.21277404 -0.21371201 0.456172 0.889867 0.006611
0.20432100 -1.23090994 -0.28650799 0.943112 0.042344 -0.329768
0.20804100 -1.23115301 -0.29432401 0.881180 -0.039375 0.471139
0.20667000 -1.22895801 -0.29181200 0.946547 -0.124159 0.297715
0.20465399 -1.27743995 -0.27420899 -0.509183 0.826077 -0.241516
0.19080400 -1.24070096 -0.23713100 -0.352272 0.205612 0.913032
0.22271299 -1.23712397 -0.21197000 -0.911321 -0.409895 0.038469
0.22492100 -1.23978496 -0.21153501 -0.886225 -0.462553 -0.025474
0.21702500 -1.23576796 -0.22787400 0.161688 -0.781239 -0.602929
0.20598400 -1.28112197 -0.21708100 -0.745926 0.661919 -0.073868
0.21065900 -1.27562201 -0.21972699 -0.728870 0.679207 -0.086179
0.30443001 -1.16475999 -0.27012300 0.662254 0.745937 -0.070698
0.25229099 -1.12203395 -0.33342901 -0.618267 0.721581 -0.311555
0.24990100 -1.12119496 -0.33037299 -0.720945 0.689032 0.073980
0.27538201 -1.11674094 -0.23173800 -0.125679 0.962678 0.239698
0.21062399 -1.15478802 -0.26387101 -0.747803 0.657071 0.095122
0.20320900 -1.17322695 -0.24059799 -0.806100 0.559241 0.193525
0.30373299 -1.16928101 -0.34787199 0.948893 -0.106899 0.296942
0.25249901 -1.12145305 -0.25505000 -0.790757 0.541377 -0.285683
0.26433501 -1.10905004 -0.26607999 0.789869 0.609899 0.064275
0.20996200 -1.15055799 -0.29436201 -0.785555 0.610012 0.103863
0.19511400 -1.19021702 -0.27441099 0.304588 0.951678 0.039179
0.21807800 -1.14781702 -0.27859101 -0.339015 0.924202 0.175838
0.22514600 -1.14699602 -0.27758801 -0.115030 0.978371 0.171926
0.20744100 -1.14874005 -0.34404501 -0.819573 0.490490 0.296175
0.24453101 -1.12466896 -0.33719501 0.046722 0.990274 0.131049
0.42970201 -1.22299802 -0.35811901 0.803650 0.562707 -0.193669
0.22831599 -1.25309396 -0.30165899 -0.999356 0.035510 -0.005073
0.25795999 -1.09880602 -0.37757599 0.488693 0.339061 -0.803876
0.26116699 -1.10382402 -0.37557900 0.403449 0.302203 -0.863656
0.29822901 -1.13211703 -0.20771500 0.426015 0.895904 -0.125964
0.29802600 -1.13317204 -0.20269001 0.565064 0.777160 0.276992
0.20354100 -1.12140799 -0.36616501 -0.705512 0.237266 0.667801
0.28660399 -1.11248398 -0.25029701 0.052707 0.645300 0.762109
0.29158100 -1.11389995 -0.24955200 -0.211879 0.350249 0.912378
0.25975701 -1.08350098 -0.36113799 -0.281601 0.803901 0.523873
0.29004499 -1.10832000 -0.38001400 0.893792 0.338716 0.293952
0.28806099 -1.11284304 -0.37665799 0.956532 -0.174764 0.233463
0.31186399 -1.16949904 -0.37010601 0.779829 -0.191510 0.595979
0.27195200 -1.10493505 -0.32463300 -0.761066 0.575985 0.298363
0.32572800 -1.19694197 -0.34769499 0.829060 0.544392 -0.127661
0.38315099 -1.17116296 -0.39222500 -0.662965 0.501840 0.555548
0.41737899 -1.17178202 -0.39915699 0.666912 0.596711 0.446279
0.32419899 -1.18898106 -0.37688500 0.842083 0.396735 0.365373
0.40691200 -1.20846200 -0.35309500 -0.283284 0.905628 0.315575
0.35423601 -1.19687700 -0.39196000 0.115157 0.829419 0.546629
0.43575701 -1.31373298 -0.25931001 0.900788 -0.382726 -0.205188
0.43579301 -1.31743503 -0.26534101 0.948964 -0.157488 0.273248
0.38503599 -1.19347203 -0.35530701 0.150101 0.932281 0.329122
0.39208099 -1.16836798 -0.38618299 -0.366458 0.685260 0.629387
0.38623500 -1.18701601 -0.36618999 -0.250330 0.810074 0.530202
0.38391599 -1.18767905 -0.36687201 -0.256666 0.864160 0.432839
0.40089899 -1.18760300 -0.37567699 0.336879 0.232779 0.912319
0.46682200 -1.27015102 -0.35644600 0.919130 -0.389326 0.060205
0.44430199 -1.22094095 -0.37772900 -0.309395 0.860457 0.404831
0.44733700 -1.21715999 -0.38117999 -0.346403 0.820928 0.453962
0.47070101 -1.21402395 -0.37653100 0.587130 0.634235 0.503014
0.47441801 -1.21920598 -0.37184799 0.534678 0.645999 0.544798
0.48235300 -1.21146798 -0.38920400 0.763044 0.488544 0.423187
0.43021300 -1.19425702 -0.40032199 0.676726 0.169563 0.716443
0.39450201 -1.40155804 -0.15517800 0.041744 -0.898179 0.437643
0.39692500 -1.39809299 -0.15487599 -0.090981 -0.810163 0.579101
0.49057901 -1.39649904 -0.39937600 0.791945 0.323470 0.517871
0.48850900 -1.39259195 -0.39797401 0.879072 0.209021 0.428418
0.48758900 -1.38280404 -0.39689800 0.976198 -0.005860 0.216803
0.48792100 -1.38774800 -0.39320499 0.947030 0.161225 0.277741
