-0.16153499 -4.00274706 -0.06053300 -0.956440 -0.255315 -0.141548
-0.15505899 -4.00923300 -0.06827800 -0.889778 -0.368133 -0.269765
-0.14186200 -4.02915287 -0.10431200 -0.894995 -0.445503 -0.022608
-0.13872100 -4.03580523 -0.09764700 -0.878659 -0.466832 -0.100136
-0.14276300 -4.03693390 -0.06239100 -0.849649 -0.512694 -0.123453
-0.14493001 -4.02844477 -0.07688400 -0.867368 -0.468173 -0.168777
-0.16038500 -4.01282215 -0.05959700 -0.899723 -0.407664 -0.155914
-0.15230601 -4.02373600 -0.05661600 -0.840334 -0.532930 -0.099116
-0.15468000 -4.01287699 -0.06413400 -0.873287 -0.419358 -0.248008
-0.14121801 -4.04181099 -0.06251400 -0.868496 -0.485961 -0.097759
-0.13834199 -4.04260397 -0.06903800 -0.853774 -0.498157 -0.151358
-0.14765000 -4.02894306 -0.05144700 -0.852462 -0.522389 -0.020459
-0.14497800 -4.03511477 -0.07192100 -0.863398 -0.480639 -0.153396
-0.13096100 -4.06220818 -0.01292700 -0.771323 -0.627343 -0.107251
-0.13368900 -4.04432106 -0.09754200 -0.854543 -0.504629 -0.122904
-0.10600700 -4.08390522 -0.05766100 -0.562382 -0.764263 -0.315639
-0.11656400 -4.07415485 -0.05170900 -0.756498 -0.643985 -0.113993
-0.12752201 -4.05525208 -0.13350999 -0.825240 -0.548689 -0.133862
-0.13101000 -4.04387999 -0.12648600 -0.885968 -0.453514 -0.096881
-0.12724400 -4.05127621 -0.12969400 -0.846594 -0.518412 -0.120527
-0.14650799 -4.02068186 -0.12203700 -0.886597 -0.451026 -0.102570
-0.14121300 -4.03074312 -0.09481000 -0.898369 -0.430497 -0.087207
-0.13621899 -4.04072285 -0.09508600 -0.867552 -0.487022 -0.100812
-0.12403100 -4.05835295 -0.12478400 -0.793684 -0.604916 -0.064353
-0.12952000 -4.05246496 -0.12457600 -0.848945 -0.520781 -0.089888
-0.12054300 -4.04487324 -0.18171600 -0.856739 -0.488091 -0.166629
-0.05464500 -4.09375286 -0.16507800 -0.089447 -0.994962 -0.045276
-0.10185800 -4.06338310 -0.22235499 -0.696435 -0.713810 -0.073842
-0.08888500 -4.07371378 -0.22631700 -0.726588 -0.683080 -0.073964
-0.07664800 -4.09815502 -0.15993500 -0.318359 -0.944596 0.079917
-0.09427000 -4.07399511 -0.21016400 -0.741247 -0.621131 -0.254458
-0.14500700 -4.07292795 0.14282700 -0.778830 -0.624493 0.058591
-0.13313600 -4.08349323 0.20727800 -0.370010 -0.908469 -0.194363
-0.09658600 -4.09586477 0.19013700 -0.307307 -0.943391 -0.124801
-0.15108199 -4.06600618 0.17364199 -0.728418 -0.667842 -0.152953
-0.13825899 -4.06456184 0.09018500 -0.692573 -0.713247 -0.107799
-0.14626899 -4.06208992 0.11823000 -0.761759 -0.620749 -0.185458
-0.15165700 -4.05412912 0.11367900 -0.795142 -0.584707 -0.160832
-0.15967099 -4.04139423 0.10493800 -0.806193 -0.573723 -0.144548
-0.16227800 -4.03776503 0.10162200 -0.837081 -0.528140 -0.142701
-0.16031900 -4.04203701 0.11036000 -0.810568 -0.571384 -0.128451
-0.15755001 -4.05080700 0.12639500 -0.782664 -0.593482 -0.187656
-0.15800001 -4.04728413 0.12070400 -0.779278 -0.603751 -0.167961
-0.15211500 -4.05918598 0.12783700 -0.780060 -0.592353 -0.201554
-0.13940600 -4.07115984 0.11514600 -0.726190 -0.654660 -0.209926
-0.15160900 -4.06178904 0.14034399 -0.829099 -0.556941 -0.049101
-0.16012201 -4.05637789 0.17809500 -0.795340 -0.590187 -0.138255
-0.15017000 -4.06878090 0.19718599 -0.724856 -0.642737 -0.247936
-0.16316800 -4.04713202 0.13315301 -0.799535 -0.585930 -0.132020
-0.15313300 -4.05789709 0.14546700 -0.798841 -0.601528 -0.004111
-0.16500901 -4.04308414 0.15550201 -0.808970 -0.578669 -0.103490
-0.16587400 -4.04244900 0.13878600 -0.816206 -0.572349 -0.078895
-0.17672201 -4.02905703 0.12668300 -0.829004 -0.502939 -0.244549
-0.16959000 -4.04171085 0.17177500 -0.787052 -0.603258 -0.128952
-0.16828500 -4.04325914 0.16315800 -0.804815 -0.575718 -0.144301
-0.16581599 -4.03055000 0.10141600 -0.872645 -0.461817 -0.158795
-0.17705600 -4.02288103 0.12927900 -0.872653 -0.454721 -0.178062
-0.17510299 -4.02862406 0.13162699 -0.842932 -0.515207 -0.155005
-0.16819400 -4.03215408 0.12227500 -0.830421 -0.521849 -0.195126
-0.17945001 -4.01370907 0.12298300 -0.883572 -0.396187 -0.249673
-0.16988100 -4.02174377 0.10374500 -0.884364 -0.428295 -0.185643
-0.17164500 -4.03287697 0.13151400 -0.834746 -0.524143 -0.168741
-0.17655900 -4.02705717 0.12823100 -0.852159 -0.470731 -0.228554
-0.18051800 -4.01719379 0.15185399 -0.900500 -0.433574 0.033352
-0.16840300 -4.03514910 0.12892801 -0.807497 -0.550079 -0.212983
-0.18227300 -4.02842379 0.20049900 -0.855332 -0.482150 -0.189576
-0.17792800 -4.03483200 0.18144301 -0.834930 -0.544767 -0.078230
-0.19326600 -4.00858021 0.19257200 -0.815855 -0.546426 -0.189206
-0.19146700 -4.02134609 0.22345200 -0.910632 -0.413217 -0.001295
-0.18645200 -4.02178621 0.20097300 -0.852529 -0.488226 -0.186631
-0.17342700 -4.03708601 0.18185300 -0.796067 -0.599579 -0.082352
-0.15889400 -4.05675507 0.17289600 -0.793490 -0.594747 -0.129035
-0.16451000 -4.05277109 0.19582300 -0.820780 -0.535555 -0.198747
-0.15612300 -4.06505299 0.19265500 -0.715802 -0.662780 -0.219887
-0.16336600 -4.05805922 0.19993000 -0.803931 -0.546797 -0.233899
-0.15368500 -4.06084013 0.17537899 -0.758069 -0.638453 -0.133073
-0.15987800 -4.08367395 0.20798700 -0.532307 -0.817636 -0.219366
-0.14358100 -4.07247686 0.17126200 -0.691335 -0.688214 -0.220041
-0.14293900 -4.08335876 0.18780300 -0.624946 -0.778691 -0.055519
-0.16257399 -4.08336115 0.20963800 -0.052675 -0.430857 0.900882
-0.15826701 -4.07129908 0.21310499 -0.763122 -0.636181 -0.113657
-0.15380301 -4.08274984 0.21393199 -0.514815 -0.857119 0.017659
-0.14698100 -4.08166885 0.21127801 -0.333142 -0.930308 -0.153439
-0.14133100 -4.08509922 0.21175700 -0.286682 -0.944284 -0.161683
-0.11609600 -4.09170198 0.22065300 -0.308962 -0.937873 -0.157914
-0.15980799 -4.08440399 0.21065500 -0.480317 -0.805847 0.346275
-0.16007200 -4.08283091 0.21527401 -0.493316 -0.755544 0.431037
-0.13313900 -4.08331203 0.19760001 -0.310734 -0.947803 -0.071508
-0.13941900 -4.07318211 0.15238100 -0.638944 -0.764113 0.088783
-0.13765199 -4.08170700 0.13977800 -0.646547 -0.762843 0.006922
-0.14752200 -4.07175779 0.16936199 -0.711589 -0.680983 -0.172924
-0.14292000 -4.08457088 0.18810099 -0.566290 -0.824068 -0.015083
-0.13554600 -4.07178593 0.11322900 -0.632910 -0.752442 -0.182364
-0.13544799 -4.07167196 0.11773400 -0.609623 -0.743326 -0.275365
-0.14198799 -4.06641293 0.11750900 -0.757664 -0.618217 -0.209171
-0.14433400 -4.07410097 0.13328800 -0.763086 -0.622958 -0.172113
-0.11363800 -4.08922291 0.15525600 -0.386352 -0.913577 0.126924
-0.13660599 -4.08177090 0.14500099 -0.600188 -0.789878 0.125965
-0.13701600 -4.07522011 0.15759701 -0.638314 -0.768525 -0.043875
-0.14395399 -4.06651020 0.11552200 -0.754059 -0.628126 -0.191970
-0.12097800 -4.08736515 0.13517500 -0.337092 -0.936068 -0.100725
-0.14373700 -4.08119583 0.19686900 -0.409167 -0.894962 -0.177836
-0.10316500 -4.09474516 0.18373600 -0.319947 -0.947295 -0.016311
-0.11529200 -4.08912086 0.19332400 -0.352432 -0.934140 -0.056337
-0.09617200 -4.09652901 0.21189199 -0.382679 -0.923393 0.030040
-0.09020600 -4.10038900 0.20854700 -0.246711 -0.968613 -0.030383
-0.08713200 -4.09926510 0.19100501 -0.174346 -0.963493 -0.203186
-0.10710200 -4.09260607 0.17323400 -0.363728 -0.931498 0.003802
-0.12677801 -4.08750105 0.15505999 -0.442723 -0.892385 0.087434
-0.12593800 -4.08529615 0.15823799 -0.467756 -0.883833 -0.006625
-0.11178700 -4.09192324 0.14717001 -0.349919 -0.936131 0.034863
-0.12748399 -4.08186579 0.16191800 -0.525788 -0.848272 -0.063095
-0.11209600 -4.08812380 0.12429500 -0.326063 -0.921235 -0.212155
-0.12436700 -4.08580208 0.12391800 -0.498186 -0.792932 -0.350812
-0.12811400 -4.07494879 0.06252600 -0.616269 -0.778834 0.116751
-0.13245000 -4.07280111 0.10816500 -0.616054 -0.778562 -0.119665
-0.11995000 -4.08901310 0.12410300 -0.316533 -0.924050 -0.214334
-0.13766700 -4.07245922 0.12515500 -0.695314 -0.673140 -0.251834
-0.12129400 -4.08371592 0.11988800 -0.469586 -0.824523 -0.315675
-0.11355800 -4.08288193 0.08490000 -0.502263 -0.864328 -0.025862
-0.11369800 -4.08407021 0.10709100 -0.360572 -0.925423 -0.116535
-0.14687900 -4.05847216 0.10702500 -0.795673 -0.591198 -0.131871
-0.13585700 -4.07449293 0.04240900 -0.638063 -0.760024 -0.123448
-0.14599399 -4.06148815 0.11426900 -0.758898 -0.636157 -0.139206
-0.13500400 -4.08493900 0.13950400 -0.569445 -0.821608 -0.026325
-0.13563600 -4.08154583 0.13307700 -0.589792 -0.771267 -0.239359
-0.12819301 -4.07425499 0.05733400 -0.594919 -0.791734 0.138665
-0.13029601 -4.07228184 0.09614600 -0.631102 -0.760636 -0.152127
-0.11365600 -4.08601618 0.04575800 -0.495380 -0.868593 -0.012082
-0.14337499 -3.90834999 0.11061300 -0.383484 0.918451 -0.096895
-0.13125700 -3.90460396 0.05796400 -0.320597 0.940328 0.114020
-0.12917900 -3.90101290 0.11074000 -0.391439 0.920203 -0.001283
-0.14130899 -3.90665102 0.05862100 -0.466834 0.867398 0.172301
-0.14511199 -3.90755796 0.12804100 -0.412747 0.909645 -0.046751
-0.13578600 -3.90353203 0.17095600 -0.349075 0.936449 -0.034779
-0.13080500 -3.89895105 0.18337500 -0.315399 0.935177 -0.161142
-0.13125700 -3.89776802 0.19306000 -0.280304 0.926284 -0.251847
-0.14246701 -3.90389204 0.18023799 -0.281584 0.924796 -0.255856
-0.10585000 -3.89366794 0.09997700 -0.193239 0.978347 -0.074136
-0.05327900 -3.89616489 0.21430600 0.474429 0.879528 -0.036704
-0.01876200 -3.91398597 0.21839800 0.446363 0.879640 -0.164296
-0.03573600 -3.90044999 0.15116100 0.353032 0.927223 0.125003
-0.04280100 -3.90457010 0.20953600 0.431354 0.897384 0.092928
-0.01766600 -3.91172695 0.11745900 0.445303 0.894643 -0.036324
-0.01219000 -3.91380811 0.10074700 0.467889 0.883493 0.022791
-0.02876600 -3.90708899 0.12426300 0.463552 0.873337 -0.149673
-0.08298300 -3.89177108 0.12613399 0.081382 0.996669 -0.005285
-0.05316200 -3.89623404 0.12729301 0.173094 0.974129 -0.145298
-0.05314000 -3.89519906 0.12325900 0.189668 0.971254 -0.143842
-0.02510900 -3.90902305 0.12145200 0.537628 0.836148 -0.108685
-0.04873200 -3.90129209 0.11223600 0.346055 0.923282 -0.166723
-0.06791200 -3.89719009 0.08110800 0.202337 0.979310 0.003469
-0.06389900 -3.89706397 0.08308200 0.224003 0.974588 -0.001173
-0.02534000 -3.91009498 0.08907000 0.347484 0.931582 0.106814
-0.01412800 -3.91432810 0.09280600 0.466466 0.881718 0.070593
-0.07776200 -3.89531493 0.07780500 0.140668 0.989247 0.040027
-0.08506300 -3.89343095 0.08236400 0.060261 0.995943 -0.066834
-0.02841800 -3.90646911 0.11361600 0.365329 0.928600 -0.065095
-0.02159100 -3.91371799 0.17316499 0.571848 0.817129 0.072729
-0.04090200 -3.89738703 0.16622600 0.344547 0.920210 0.185743
-0.03366800 -3.90060902 0.19713800 0.386166 0.914896 0.117649
-0.06003400 -3.89621997 0.18009700 0.275607 0.958911 0.067314
-0.04418000 -3.89681101 0.13395600 0.194126 0.977956 -0.076918
-0.02473100 -3.90459108 0.15629800 0.529314 0.827902 0.185486
-0.02060500 -3.91111207 0.18552800 0.638927 0.769207 0.009702
-0.02285100 -3.90879297 0.18843500 0.649575 0.759481 0.035226
-0.03054100 -3.90910196 0.17805500 0.530630 0.846515 -0.042949
-0.02196800 -3.91093898 0.18177600 0.601565 0.794874 -0.079343
-0.02221500 -3.90826988 0.18495500 0.626932 0.778406 -0.032258
-0.04082900 -3.90491605 0.21526700 0.415336 0.908962 0.035828
-0.04093700 -3.90487504 0.22214700 0.426736 0.904368 0.003915
-0.05699300 -3.89371896 0.21366000 0.461298 0.885638 -0.053385
-0.02489100 -3.90892601 0.18349500 0.596586 0.800644 -0.055266
-0.02957400 -3.90615106 0.16232701 0.480437 0.850932 0.212356
-0.01876100 -3.91044998 0.15796000 0.574288 0.798548 0.180317
-0.02833500 -3.90609193 0.19570599 0.497257 0.866412 0.045456
-0.02664800 -3.90984106 0.17812100 0.549881 0.832596 -0.066438
-0.02400200 -3.91131496 0.17676701 0.594904 0.803739 0.009617
-0.01155500 -3.91689992 0.13345300 0.540540 0.841291 0.006774
-0.01038700 -3.91272092 0.22034900 0.591004 0.797339 -0.122327
-0.02960200 -3.90202093 0.15390500 0.420638 0.891869 0.166232
-0.01880000 -3.91169810 0.11098000 0.441376 0.897244 -0.011858
-0.02812400 -3.90832806 0.10698600 0.352367 0.934878 -0.042908
-0.03338300 -3.90688801 0.09930000 0.332851 0.942440 -0.031882
-0.01767900 -3.91096210 0.07529000 0.301458 0.898434 0.319278
-0.00741600 -3.91640711 0.10102200 0.521519 0.850455 0.068880
-0.01772500 -3.91544199 0.16875499 0.600607 0.791509 0.113073
-0.01016200 -3.91588306 0.10317700 0.493933 0.868166 0.048155
-0.01771500 -3.91636300 0.18488701 0.633858 0.773167 0.020896
-0.00996200 -3.91702199 0.21279800 0.630732 0.729234 -0.265320
-0.01191500 -3.92339706 0.20063201 0.621864 0.776965 -0.098035
-0.00830900 -3.92332602 0.17636700 0.631633 0.765391 0.123354
-0.03911400 -4.09611988 0.16918400 0.354896 -0.928714 0.107421
-0.02353700 -4.09055424 0.17153400 0.422187 -0.889349 0.175548
-0.09009100 -4.09475899 0.11615900 -0.313137 -0.947208 -0.068864
-0.03076600 -4.09464121 0.10503500 0.336664 -0.939252 -0.066809
-0.06561900 -4.10498095 0.04522000 -0.020077 -0.976680 0.213759
-0.02513700 -4.09478617 0.05430600 0.259350 -0.965562 0.020699
-0.04086300 -4.09912682 0.04130200 0.404087 -0.913529 -0.046677
-0.01119600 -4.08916998 0.05065900 0.405021 -0.912969 -0.049458
-0.09639700 -4.09399414 0.03969800 -0.512862 -0.855706 -0.068850
-0.09770500 -4.08728981 -0.03157900 -0.499612 -0.861936 0.086335
-0.08543300 -4.09464216 0.07726200 -0.225336 -0.974070 0.020268
-0.10029900 -4.09263277 0.04162900 -0.499942 -0.865753 -0.023033
-0.10997400 -4.08294201 0.02552900 -0.524460 -0.836462 -0.158972
-0.11856900 -4.07998800 0.07487900 -0.530341 -0.847731 0.009495
-0.11971400 -4.07474089 0.00689000 -0.614852 -0.779993 -0.116483
-0.08529900 -4.09830093 0.05367000 -0.345193 -0.915263 0.207689
-0.10348300 -4.09095383 0.04648700 -0.460443 -0.887520 0.017350
-0.10184000 -4.09231710 0.05376200 -0.444646 -0.893395 0.064303
-0.13191500 -4.06538010 0.02808600 -0.702704 -0.644815 -0.300699
-0.14007300 -4.05346298 0.01039600 -0.815997 -0.556430 -0.156636
-0.13886200 -4.04700279 -0.04039000 -0.847185 -0.530352 -0.031683
-0.11660900 -4.07525206 -0.01478800 -0.648834 -0.758171 -0.064739
-0.13562700 -4.05189991 -0.02464900 -0.820282 -0.569836 -0.049245
-0.12792499 -4.06355715 -0.01212100 -0.738900 -0.665158 -0.107664
-0.14762600 -4.04071093 0.00878200 -0.843493 -0.527363 -0.102024
-0.13513300 -4.05402899 -0.00944800 -0.816206 -0.572349 -0.078895
-0.11561800 -4.07548189 -0.00979900 -0.605363 -0.792293 -0.076210
-0.11013200 -4.08076715 0.00775900 -0.593495 -0.803130 -0.052409
-0.11804000 -4.07518578 -0.00513500 -0.605122 -0.790866 -0.091421
-0.11547900 -4.07360411 -0.02170900 -0.666978 -0.743772 -0.044086
-0.08913900 -4.09361076 0.02201600 -0.418052 -0.892518 -0.169246
-0.09150600 -4.09492683 0.01457400 -0.358693 -0.923739 -0.134337
-0.02029000 -4.09631205 -0.09974500 0.197152 -0.964871 0.173651
-0.03520000 -4.09620905 -0.00722600 0.095769 -0.995356 -0.009685
-0.02981000 -4.09948921 -0.03643600 0.059579 -0.987137 0.148363
-0.02165300 -3.90361500 0.05935100 0.223132 0.966045 0.130268
-0.01324900 -3.90757203 0.06877300 0.303631 0.899044 0.315480
-0.04454400 -3.89380407 -0.00403600 0.283579 0.955956 0.075707
-0.01681300 -3.90795588 0.07235200 0.295884 0.905318 0.304717
-0.03059000 -3.90078092 0.03455000 0.291456 0.953974 -0.070617
-0.03759500 -3.90397596 0.07475100 0.210020 0.964004 0.163059
-0.03260000 -3.90670204 0.08875600 0.282763 0.957337 0.059596
-0.02697300 -3.90353298 0.03308700 0.338267 0.938461 -0.069759
-0.02704200 -3.90228605 0.01435700 0.306850 0.946890 0.096138
-0.02239200 -3.90541697 0.03860900 0.365329 0.928600 -0.065095
-0.04261900 -3.89782810 0.04134800 0.236101 0.971693 -0.008305
-0.01760700 -3.90784597 0.02349300 0.341987 0.939511 0.019070
-0.01395500 -3.90455198 -0.00235200 0.372012 0.919657 0.125848
-0.00972400 -3.90099311 -0.02881700 0.375276 0.916566 0.138113
-0.02366400 -3.90263700 -0.00405900 0.346050 0.933935 0.089519
-0.12354300 -3.90003705 -0.02258400 -0.293277 0.946790 0.132577
-0.10164300 -3.89432502 -0.01656000 -0.248354 0.967470 0.048188
-0.12536800 -3.90122890 0.00700300 -0.366594 0.928969 0.051244
-0.14097001 -3.90640497 0.01938300 -0.631399 0.765107 -0.126280
-0.06192400 -3.89203596 0.00404800 0.159960 0.984645 0.069909
-0.12872100 -3.90446401 0.07237600 -0.347717 0.936361 0.048185
-0.11875000 -3.89678693 0.05238500 -0.375473 0.918594 0.123310
-0.07770200 -3.88935804 0.04181200 0.167144 0.985576 -0.026513
-0.04158600 -3.90069604 0.06217700 0.202255 0.964299 0.170938
-0.12007300 -4.07324696 -0.04565000 -0.785247 -0.619057 0.012464
-0.13810100 -3.90741706 0.00899200 -0.617433 0.766837 -0.175321
-0.13038699 -3.90370202 0.06541600 -0.340990 0.934017 0.106475
-0.11312400 -3.89876890 0.08509700 -0.316774 0.942302 -0.108264
-0.14298600 -3.90832996 0.06269700 -0.492436 0.857745 0.147585
-0.11695700 -3.89913607 0.03154300 -0.312031 0.938818 -0.145796
-0.12139000 -3.90133309 0.02583700 -0.314210 0.945258 -0.088084
-0.14146601 -3.90350604 -0.03527400 -0.582434 0.803612 -0.122385
-0.12547299 -3.90347791 -0.01475300 -0.354177 0.932532 0.070305
-0.14493100 -3.91571498 -0.03279900 -0.808045 0.584938 -0.070078
-0.13365901 -3.90581203 -0.00934100 -0.439250 0.898286 -0.011872
-0.14083600 -3.90416002 -0.02443800 -0.533502 0.830717 0.159010
-0.14509000 -3.91609001 -0.04196900 -0.772977 0.612634 -0.164882
-0.14522600 -3.90559793 0.02952000 -0.607141 0.786490 -0.113196
-0.14483500 -3.90548301 0.04743100 -0.458081 0.883942 0.093858
-0.14305700 -4.03667498 -0.03788600 -0.866406 -0.492883 -0.080041
-0.14175400 -4.04164600 -0.04109300 -0.874124 -0.485024 -0.025670
-0.13147700 -4.05569983 -0.03439900 -0.790747 -0.610968 -0.037922
-0.14076200 -4.04889679 -0.00511800 -0.836272 -0.541790 -0.084342
-0.13736901 -4.05853701 0.02370500 -0.747204 -0.611348 -0.260652
-0.13648801 -4.05451488 -0.00066600 -0.804653 -0.581056 -0.122095
-0.12590300 -4.06327200 -0.04429800 -0.783646 -0.619857 0.040947
-0.13912500 -4.04999685 -0.03238400 -0.833730 -0.547799 -0.069360
-0.13233399 -4.05753613 -0.01679400 -0.786100 -0.616743 -0.040928
-0.13199100 -4.05927992 -0.00998900 -0.788070 -0.606770 -0.103809
-0.12182800 -4.06998587 -0.00954300 -0.678723 -0.728564 -0.092353
-0.13326100 -4.06747198 0.01939000 -0.737319 -0.634000 -0.233249
-0.13084599 -4.06806183 0.01113100 -0.721454 -0.676080 -0.149736
-0.14393599 -4.05757284 0.07284100 -0.776103 -0.629082 -0.043824
-0.14434600 -4.05158615 0.02884600 -0.805010 -0.522551 -0.280891
-0.13461100 -4.06313992 0.02473200 -0.729816 -0.614329 -0.299947
-0.13482800 -4.06624079 0.05535500 -0.698021 -0.694966 0.172596
-0.13966300 -4.06188011 0.06709800 -0.756964 -0.652652 0.032421
-0.13293999 -4.07479620 0.03451400 -0.614302 -0.735567 -0.285611
-0.13847101 -4.06948423 0.04182700 -0.693895 -0.708817 -0.126841
-0.12887301 -4.06898880 0.02438200 -0.655908 -0.703784 -0.272896
-0.13102700 -4.06670618 0.02551700 -0.643760 -0.701844 -0.304939
-0.13176800 -4.07559776 0.04407700 -0.622889 -0.781084 -0.043786
-0.11986700 -4.08177996 0.04230200 -0.478711 -0.876954 -0.042279
-0.12704000 -4.07176781 0.02650100 -0.625429 -0.718680 -0.303871
-0.13054501 -4.07239723 0.05613500 -0.665528 -0.729201 0.159181
-0.13137101 -4.07329702 0.05434400 -0.664323 -0.733618 0.143108
-0.11257200 -4.08443785 0.03686800 -0.485909 -0.867797 -0.104022
-0.12213900 -4.07281780 0.02011900 -0.603976 -0.775230 -0.185016
-0.12804399 -4.06566286 0.00141500 -0.734438 -0.662050 -0.149301
-0.12156200 -4.07036686 -0.01844000 -0.681642 -0.727953 -0.073808
-0.12856400 -4.06176901 -0.01772000 -0.765838 -0.638440 -0.076729
-0.13202500 -4.05993891 0.00373600 -0.766522 -0.625518 -0.145504
-0.12183900 -4.07261992 -0.04746000 -0.783901 -0.620761 0.012443
-0.14372499 -4.03838015 -0.05033200 -0.867233 -0.497681 -0.014836
-0.13066900 -4.05688190 -0.05208300 -0.823744 -0.566921 -0.006830
-0.12218800 -4.05698013 -0.13055199 -0.789561 -0.599234 -0.132337
-0.12710901 -4.05641890 -0.07292300 -0.778542 -0.622544 -0.079443
-0.13804699 -4.04712200 -0.05977200 -0.818297 -0.568062 -0.087726
-0.13625100 -4.04688120 -0.09224700 -0.859991 -0.498192 -0.110550
-0.11551100 -4.06457710 -0.11559600 -0.724590 -0.687577 -0.046977
-0.08932000 -4.08499479 -0.13294201 -0.471745 -0.869462 -0.146604
-0.12666300 -4.04503822 -0.14016600 -0.848093 -0.500539 -0.173777
-0.12745200 -4.05441713 -0.11131600 -0.811212 -0.581864 -0.058045
-0.13497899 -4.03892279 -0.10478400 -0.867697 -0.483329 -0.116171
-0.13009900 -4.04934502 -0.09857600 -0.844616 -0.522996 -0.114451
-0.13080400 -4.04625797 -0.10992700 -0.854781 -0.511735 -0.086470
-0.12517700 -4.05476093 -0.11796600 -0.817662 -0.574460 -0.037738
-0.14182299 -4.03330803 -0.08396600 -0.891696 -0.440949 -0.102188
-0.14050400 -4.02439499 -0.13708299 -0.859118 -0.486099 -0.160075
-0.14532800 -4.02159786 -0.09682800 -0.907504 -0.415207 -0.063566
-0.13175100 -4.04703522 -0.10355500 -0.851012 -0.516328 -0.095828
-0.13979900 -4.03881979 -0.07774700 -0.887602 -0.444511 -0.120714
-0.12255400 -4.06361485 -0.07253500 -0.766323 -0.634451 -0.101102
-0.11751100 -4.06816912 -0.07825100 -0.739132 -0.665366 -0.104747
-0.13093400 -4.04700994 -0.12150500 -0.881680 -0.467746 -0.062090
-0.12833899 -4.05392694 -0.12219300 -0.842507 -0.533824 -0.072215
-0.12816900 -4.05272007 -0.13702901 -0.840419 -0.517295 -0.161562
-0.12696600 -4.04794598 -0.13302100 -0.860348 -0.490587 -0.138296
-0.12196800 -4.06005716 -0.10163300 -0.762692 -0.639724 -0.095153
-0.11394400 -4.06500006 -0.13628601 -0.700638 -0.697612 -0.149813
-0.11324900 -4.07351685 -0.07681600 -0.652448 -0.745441 -0.136489
-0.12512501 -4.05623579 -0.11605600 -0.801766 -0.596040 -0.043681
-0.12105900 -4.06018591 -0.11012200 -0.756814 -0.653294 -0.020984
-0.09769000 -4.07947302 -0.12914699 -0.565520 -0.815229 -0.124855
-0.11618400 -4.06611204 -0.12684600 -0.707853 -0.699023 -0.101542
-0.12576000 -4.05406094 -0.12827700 -0.820540 -0.563851 -0.093735
-0.12023600 -4.05844498 -0.12886700 -0.774793 -0.620723 -0.119997
-0.12224400 -4.06103611 -0.08802000 -0.741316 -0.661414 -0.113935
-0.12524900 -4.06426477 -0.05463500 -0.771786 -0.628266 -0.098121
-0.10125200 -4.08318281 -0.07006700 -0.539778 -0.821007 -0.185974
-0.10760700 -4.08134413 -0.06327000 -0.573398 -0.767178 -0.287493
-0.11049300 -4.08641195 -0.04774400 -0.658657 -0.751744 -0.032439
-0.06033800 -4.09839392 -0.06948800 -0.201447 -0.971759 -0.122895
-0.05492100 -4.10070515 -0.06680700 -0.098084 -0.993244 -0.062007
-0.01991200 -4.09500980 -0.05492800 0.315920 -0.939626 -0.131520
-0.06388200 -4.09720087 -0.08146200 -0.253315 -0.963617 -0.085287
-0.09849800 -4.08327818 -0.10213800 -0.545109 -0.836582 -0.054651
-0.09925700 -4.08216476 -0.07902400 -0.516569 -0.855438 -0.037193
-0.03158200 -4.10019684 -0.07541200 0.151220 -0.972126 -0.179176
-0.08484400 -4.08964205 -0.08972600 -0.374688 -0.927129 -0.006394
-0.06499400 -4.09658003 -0.11700100 -0.251281 -0.967854 -0.010821
-0.00735500 -4.09198523 -0.09614300 0.315672 -0.941644 0.116866
-0.08381600 -4.08941221 -0.10607300 -0.429874 -0.902865 0.006533
-0.08745100 -4.08764601 -0.11002800 -0.485056 -0.874182 -0.022969
-0.09558900 -4.07940388 -0.14818200 -0.539612 -0.836039 -0.099289
-0.10630300 -4.07435513 -0.12906300 -0.659155 -0.744683 -0.104698
-0.11944600 -4.05657005 -0.15236400 -0.772976 -0.621062 -0.129574
-0.10790200 -4.07054377 -0.13460000 -0.704755 -0.686330 -0.179643
-0.07718200 -4.09324980 -0.09258500 -0.325946 -0.945368 0.006244
-0.12245100 -4.04784393 -0.16629000 -0.844966 -0.518070 -0.132801
-0.11764300 -4.05974102 -0.13301000 -0.727278 -0.669821 -0.149689
-0.10592000 -4.07507420 -0.10873600 -0.700712 -0.712082 -0.044061
-0.12350800 -4.05222511 -0.14196600 -0.832979 -0.524911 -0.174970
-0.12847599 -4.05542898 -0.13892600 -0.826226 -0.535323 -0.175442
-0.11585100 -4.05907488 -0.14536799 -0.743270 -0.652811 -0.146242
-0.10409600 -4.07465076 -0.14758800 -0.652882 -0.752202 -0.089096
-0.10704500 -4.07579899 -0.09913000 -0.662866 -0.742234 -0.098475
-0.10023200 -4.07432079 -0.16207300 -0.623741 -0.771898 -0.122970
-0.10282300 -4.07082701 -0.16415600 -0.639025 -0.758190 -0.129592
-0.10575400 -4.06890106 -0.17084301 -0.681382 -0.722947 -0.114306
-0.08928100 -4.08298016 -0.14104900 -0.488822 -0.863730 -0.122566
-0.09375000 -4.07421207 -0.18844000 -0.682838 -0.728647 0.052966
-0.08515000 -4.08570814 -0.14273600 -0.471484 -0.876819 -0.094297
-0.08322300 -4.09014177 -0.13973700 -0.452717 -0.887325 -0.087757
-0.08751600 -4.08616304 -0.13707800 -0.474392 -0.868993 -0.140722
-0.08257100 -4.08938980 -0.14184199 -0.452717 -0.887325 -0.087757
-0.10770600 -4.06264019 -0.18583301 -0.719336 -0.670256 -0.182518
-0.11729100 -4.05607224 -0.15795501 -0.781854 -0.615253 -0.100837
-0.11326400 -4.06146002 -0.16107400 -0.750730 -0.654145 -0.092195
-0.10844800 -4.06774092 -0.15093300 -0.709927 -0.701287 -0.064801
-0.10786600 -4.06695604 -0.15908100 -0.694805 -0.712432 -0.098418
-0.03832000 -4.09582281 -0.14974500 -0.003026 -0.999507 -0.031266
-0.06850900 -4.08804798 -0.18998300 -0.328734 -0.941672 -0.072033
-0.05438100 -4.09796906 -0.12639900 -0.143001 -0.984185 -0.104547
-0.05253700 -4.10278606 -0.12189900 -0.105193 -0.990665 -0.086698
-0.04700300 -4.09870386 -0.13382900 -0.026702 -0.983314 -0.179945
-0.06885200 -4.09193802 -0.18340699 -0.294369 -0.938387 -0.181044
-0.08384300 -4.08212280 -0.18322700 -0.527922 -0.849266 0.006751
-0.08988400 -4.08031607 -0.17754300 -0.566876 -0.814241 -0.125155
-0.04404700 -4.09537411 -0.19397201 -0.238066 -0.953609 0.184266
-0.08317000 -4.08094978 -0.19056700 -0.453523 -0.876422 0.161868
-0.07107900 -4.09011889 -0.18478701 -0.352087 -0.916566 -0.189585
-0.09430800 -4.07381487 -0.19871500 -0.793061 -0.608433 -0.029373
-0.08819400 -4.08090210 -0.16973500 -0.604075 -0.789266 -0.110233
-0.10206200 -4.06371689 -0.20368700 -0.715375 -0.695143 -0.070815
-0.10121800 -4.06582880 -0.20770299 -0.749013 -0.660894 -0.046902
-0.08606900 -4.08353996 -0.22723199 -0.983248 -0.141501 -0.114894
-0.08525100 -4.08772707 -0.22755501 -0.985717 0.045495 -0.162148
-0.07607000 -4.08325100 -0.21929801 -0.426685 -0.903172 0.047110
-0.00804600 -4.09201813 -0.22765200 0.148484 -0.980485 0.128850
-0.00206900 -4.09231997 -0.22744501 0.233620 -0.959558 0.157067
-0.01799800 -4.09503889 -0.21475101 0.257517 -0.954013 -0.153443
-0.09830500 -4.06809521 -0.21277399 -0.781204 -0.607935 -0.141901
-0.10421200 -4.06140089 -0.20885700 -0.728773 -0.683136 -0.047064
-0.10761900 -4.05944300 -0.22090501 -0.720669 -0.688639 -0.080074
-0.10730100 -4.05932093 -0.21110401 -0.709343 -0.703657 -0.041224
-0.12776300 -4.03842115 -0.16458400 -0.841995 -0.522769 -0.133255
-0.12159200 -4.03795910 -0.20770299 -0.892385 -0.442723 0.087434
-0.11664000 -4.04970598 -0.19024600 -0.801987 -0.582589 -0.131935
-0.12179300 -4.04862213 -0.21406101 -0.776103 -0.629082 -0.043824
-0.13600899 -4.01286077 -0.21567300 -0.920782 -0.377862 -0.096853
-0.08506800 -4.08024120 -0.19491100 -0.509103 -0.851405 0.126188
-0.09194300 -4.07534981 -0.19485500 -0.701734 -0.707569 0.083158
-0.08502100 -4.08271790 -0.21253800 -0.613432 -0.783260 -0.101019
-0.08994800 -4.08781385 -0.20407200 -0.511241 -0.849155 -0.132544
-0.12577701 -4.03367615 -0.19881700 -0.882906 -0.467900 -0.039331
-0.11496000 -4.05172920 -0.20964199 -0.712607 -0.701451 0.012551
-0.11297100 -4.05377388 -0.19190700 -0.760781 -0.635230 -0.133025
-0.11411600 -4.05073118 -0.21870001 -0.691131 -0.703337 -0.166299
-0.12520400 -4.03841019 -0.21594501 -0.893982 -0.444950 -0.053067
-0.12461300 -4.04490614 -0.21321200 -0.855822 -0.517255 -0.004031
-0.12393200 -4.03899288 -0.21187501 -0.897861 -0.437419 0.050107
-0.11605900 -4.05047703 -0.19772300 -0.757919 -0.652228 -0.012516
-0.11874700 -4.04625797 -0.20783700 -0.790969 -0.605879 0.085315
-0.12714601 -4.03461218 -0.22317301 -0.902794 -0.394703 -0.170799
-0.11498500 -4.05222607 -0.21336301 -0.709710 -0.704089 -0.023891
-0.12082300 -4.04220915 -0.22353600 -0.826481 -0.530338 -0.188867
-0.12577200 -4.03714323 -0.22235900 -0.874496 -0.452628 -0.174313
-0.12403600 -4.03992319 -0.18094400 -0.847486 -0.509667 -0.148347
-0.12987100 -4.02799702 -0.23036601 -0.918690 -0.383584 -0.094190
-0.11732800 -4.05857992 -0.16704500 -0.772593 -0.620167 -0.135988
-0.11844200 -4.05486393 -0.16400100 -0.799491 -0.592701 -0.097570
-0.12033100 -4.05016708 -0.16652299 -0.841029 -0.525095 -0.130177
-0.11575100 -4.05784798 -0.17285800 -0.761176 -0.628008 -0.161920
-0.11753300 -4.05414200 -0.17257600 -0.799106 -0.580214 -0.157422
-0.13087100 -4.03747702 -0.15436700 -0.858004 -0.501580 -0.110664
-0.13810900 -4.02620888 -0.15704501 -0.880414 -0.464780 -0.094079
-0.13090000 -4.03691387 -0.14135200 -0.887170 -0.440002 -0.139023
-0.12682800 -4.04319811 -0.15205801 -0.866600 -0.470691 -0.165695
-0.09595300 -4.07913589 -0.13928699 -0.559963 -0.817044 -0.137405
-0.11131800 -4.06239414 -0.16948999 -0.736314 -0.664624 -0.126951
-0.12078400 -4.05222607 -0.15948801 -0.822902 -0.558761 -0.103044
-0.13601300 -4.03119421 -0.14079000 -0.861883 -0.493532 -0.116548
-0.13960700 -4.02086306 -0.15491100 -0.906772 -0.411419 -0.092191
-0.14281601 -4.01033688 -0.16083500 -0.926106 -0.359772 -0.113540
-0.13645300 -4.02304602 -0.17985100 -0.883082 -0.433513 -0.179536
-0.13827001 -4.02005196 -0.17115700 -0.898120 -0.411101 -0.156132
-0.12735800 -4.02692223 -0.22160900 -0.928877 -0.348842 -0.124489
-0.14043000 -4.00976515 -0.17947100 -0.928290 -0.337182 -0.156796
-0.13295300 -4.01072884 -0.22373500 -0.934922 -0.346120 -0.078242
-0.13213100 -4.02047014 -0.21194801 -0.921813 -0.384860 -0.046289
-0.12782601 -4.03142595 -0.20643599 -0.938240 -0.342243 0.050751
-0.13583501 -4.01683617 -0.21177500 -0.912932 -0.398296 -0.088966
-0.13181600 -4.01845503 -0.21911100 -0.933243 -0.356329 -0.045683
-0.12643200 -4.02834177 -0.21424600 -0.946632 -0.321426 -0.023949
-0.13805000 -4.00911617 -0.20887400 -0.922687 -0.365489 -0.122749
-0.12575600 -4.03550911 -0.18699899 -0.844128 -0.519351 -0.133129
-0.12625401 -4.04477787 -0.21939600 -0.847259 -0.515913 -0.126435
-0.14219300 -3.98113298 -0.21682300 -0.976801 -0.184934 -0.107982
-0.14608000 -3.97891593 -0.19234200 -0.996348 -0.053473 -0.066569
-0.14700700 -3.97557306 -0.18756600 -0.997448 -0.024484 -0.067064
-0.14384000 -3.97132707 -0.22707000 -0.992576 -0.032379 -0.117233
-0.13388400 -3.92345905 -0.22187500 -0.892599 0.442829 -0.084679
-0.14473900 -3.98646688 -0.19502200 -0.985881 -0.127557 -0.108483
-0.14338700 -3.95599699 -0.21808800 -0.989921 0.079888 -0.116938
-0.14140600 -3.94630194 -0.22690600 -0.984560 0.171279 0.036120
-0.14654399 -3.99131608 -0.18389601 -0.973180 -0.199659 -0.114270
-0.14776599 -3.98940492 -0.18717200 -0.981787 -0.159373 -0.103410
-0.14287101 -4.00238514 -0.18610200 -0.942441 -0.312360 -0.119313
-0.14552300 -3.93569589 -0.15962701 -0.930047 0.329479 -0.162654
-0.13735400 -3.92297506 -0.20350800 -0.902264 0.430596 -0.022523
-0.14162301 -3.93687701 -0.19845100 -0.948412 0.316137 0.023931
-0.13392299 -3.92271209 -0.23311900 -0.886837 0.448369 0.111739
-0.13997300 -3.94045806 -0.22839700 -0.960090 0.265339 0.088446
-0.13561000 -3.92952800 -0.21927600 -0.937073 0.338941 -0.083738
-0.14037199 -3.92750096 -0.19561100 -0.908004 0.415664 0.052462
-0.13768600 -3.92818999 -0.18840900 -0.894885 0.444068 0.044542
-0.13951699 -3.92540908 -0.19758700 -0.908854 0.415057 0.041372
-0.13079900 -3.91544700 -0.18675700 -0.845823 0.526321 0.087007
-0.12433400 -3.90871096 -0.18657801 -0.746219 0.657909 0.101556
-0.12818900 -3.90355396 -0.19800700 -0.769872 0.634605 0.067634
-0.11507800 -3.89912295 -0.21938699 -0.711819 0.700361 0.052993
-0.14308800 -3.97404194 -0.22520900 -0.992319 -0.064643 -0.105469
-0.13379900 -4.01063204 -0.21989900 -0.925434 -0.367193 -0.093492
-0.12468700 -3.90590501 -0.20617799 -0.759163 0.646373 -0.076639
-0.11482800 -3.89968991 -0.15826900 -0.607267 0.789882 -0.085510
-0.09067400 -3.88569903 -0.15438201 -0.484213 0.873778 0.045266
-0.10865600 -3.89532709 -0.15361400 -0.511603 0.857319 -0.057155
-0.12598500 -3.90685201 -0.14983100 -0.671306 0.723062 -0.162879
-0.11915500 -3.90351200 -0.16584399 -0.651073 0.756961 -0.055806
-0.12411300 -3.90402389 -0.08111800 -0.570985 0.819117 -0.054984
-0.05042200 -3.88278699 -0.10891600 0.135145 0.982544 0.127840
-0.04129100 -3.88455892 -0.10121500 0.263795 0.932453 0.246867
-0.02398100 -3.88856697 -0.09921500 0.224307 0.950245 0.216150
-0.02724600 -3.89428306 -0.09039600 0.252147 0.943828 0.213567
-0.01234300 -3.89917994 -0.07665000 0.383609 0.917086 0.108620
-0.07728000 -3.88763905 -0.06179900 0.053317 0.998380 0.019863
-0.14145900 -3.92054510 -0.08801200 -0.778766 0.625566 -0.046811
-0.14543900 -3.91712999 -0.04663600 -0.764941 0.626681 -0.148780
-0.14041799 -3.90530896 -0.03805500 -0.608899 0.781594 -0.135476
-0.14172401 -3.92236209 -0.08120500 -0.797328 0.599785 -0.067279
-0.10000200 -3.89250994 -0.04971600 -0.255315 0.956440 0.141548
-0.12330600 -3.89833808 -0.03818600 -0.331955 0.943254 -0.008769
-0.12529001 -3.90114808 -0.04438700 -0.450062 0.855880 -0.254781
-0.11558800 -3.89753795 -0.07887300 -0.529816 0.846870 0.045890
-0.12638600 -3.90577412 -0.07544100 -0.575896 0.814786 -0.066832
-0.14336599 -3.91605806 -0.12811799 -0.774144 0.632887 -0.012464
-0.13336600 -3.91306400 -0.12295000 -0.703133 0.708861 0.055850
-0.13119900 -3.91087294 -0.10391600 -0.676566 0.734023 0.058894
-0.14377099 -3.91860509 -0.13040499 -0.832238 0.552494 -0.046158
-0.13382700 -3.90901804 -0.13729100 -0.688615 0.722974 -0.055834
-0.12539899 -3.90430999 -0.13313399 -0.660250 0.750348 -0.032379
-0.12371400 -3.90113211 -0.11901000 -0.656381 0.749527 0.085868
-0.15084000 -3.93146491 -0.07756200 -0.883676 0.446867 -0.139377
-0.13453101 -3.91097903 -0.13397899 -0.688615 0.722974 -0.055834
-0.10943700 -3.89686203 -0.02892200 -0.233701 0.962220 0.139698
-0.11228800 -3.89218402 -0.04556300 -0.280228 0.958807 0.046495
-0.13812000 -3.90014696 -0.02934400 -0.444371 0.892870 0.072915
-0.11545900 -3.89649105 -0.05527600 -0.395514 0.914710 -0.082908
-0.12652600 -3.90476990 -0.05816200 -0.513714 0.841300 -0.168260
-0.13174500 -3.90537810 -0.04311800 -0.528123 0.817590 -0.229418
-0.10939300 -3.89515495 -0.08129600 -0.483072 0.873934 0.053675
-0.11976100 -3.90245104 -0.09009800 -0.592874 0.804111 -0.043656
-0.10785200 -3.89180708 -0.09444600 -0.493996 0.868277 -0.045409
-0.08948300 -3.88888407 -0.05112600 -0.190629 0.973346 0.127507
-0.09949000 -3.89148402 -0.05430900 -0.250836 0.960454 0.120869
-0.11817500 -3.89388990 -0.04668400 -0.379863 0.924025 -0.043375
-0.11734000 -3.89500499 -0.03988400 -0.333406 0.942776 -0.003746
-0.12697700 -3.90224910 -0.04927200 -0.457383 0.845465 -0.275662
-0.10901400 -3.89350510 -0.05321800 -0.318445 0.947842 0.013737
-0.09225900 -3.88431501 -0.05992700 -0.226114 0.973379 0.037484
-0.06943300 -3.88947105 -0.03368000 0.001034 0.998260 0.058965
-0.06261200 -3.88881707 -0.02995800 0.043140 0.994423 0.096235
-0.10128300 -3.89354706 -0.04163500 -0.237253 0.963274 0.125757
-0.08959400 -3.88763595 -0.07020600 -0.184051 0.982763 -0.017363
-0.07930300 -3.88649011 -0.05569600 0.062942 0.997469 0.033071
-0.08056500 -3.88346195 -0.10659300 -0.110706 0.989361 0.094391
-0.09022300 -3.88398790 -0.05531400 -0.173029 0.977177 0.123236
-0.07552500 -3.88479996 -0.08872300 -0.105707 0.992284 0.064788
-0.08068800 -3.88661695 -0.05332400 0.001026 0.998629 0.052343
-0.08804500 -3.88476992 -0.11142300 -0.305658 0.951905 0.021209
-0.05133900 -3.88277888 -0.10350500 0.137348 0.978760 0.152197
-0.06226200 -3.88686204 -0.03568000 0.071157 0.997261 0.020179
-0.06388400 -3.88675308 -0.05857200 0.072956 0.996335 0.044645
-0.05399400 -3.89500308 0.02271100 0.287908 0.956759 0.041489
-0.05829000 -3.89301300 0.01669500 0.227376 0.973265 0.032482
-0.06895200 -3.88838410 -0.03843500 0.013802 0.996897 0.077501
-0.05175700 -3.88997793 -0.03416300 0.194981 0.977360 0.082162
-0.03797600 -3.89716601 0.00403700 0.308308 0.946096 0.099241
-0.02839100 -3.89537907 -0.03108600 0.198640 0.975925 0.090066
-0.03734800 -3.89265394 -0.06469000 0.163698 0.985673 0.040634
-0.03767600 -3.89315701 -0.03683900 0.165159 0.985097 0.048025
-0.03485200 -3.89453006 -0.04405200 0.243524 0.965170 0.095624
-0.01740600 -3.89834499 -0.04607600 0.343590 0.938806 0.024268
-0.02893000 -3.89339209 -0.05945000 0.229121 0.966404 0.116480
-0.01951800 -3.89610696 -0.06155100 0.367006 0.927525 0.070732
-0.03065000 -3.89949799 -0.01700200 0.309153 0.927460 0.210337
-0.02108000 -3.89782906 -0.05291800 0.345874 0.931826 0.109866
-0.01369300 -3.89933991 -0.04911200 0.420062 0.907281 0.019752
-0.01270500 -3.90072799 -0.03600100 0.358759 0.933283 -0.016597
-0.01262300 -3.89998102 -0.04325000 0.397131 0.916964 -0.038262
-0.01997700 -3.88976312 -0.09853600 0.217491 0.956695 0.193474
-0.03201600 -3.89245391 -0.08917300 0.222418 0.963809 0.146978
-0.02495600 -3.89513397 -0.07897400 0.276389 0.960546 0.030985
-0.02386200 -3.89514399 -0.08892700 0.262034 0.953698 0.147644
-0.01272100 -3.89440107 -0.09765400 0.249973 0.946620 0.203530
-0.02568300 -3.88870192 -0.11470500 0.301637 0.942785 0.142026
-0.02656700 -3.88945198 -0.06895500 0.265128 0.963990 0.020770
-0.02675400 -3.89134598 -0.06153600 0.265932 0.959667 0.091213
-0.03953300 -3.89151001 -0.08380600 0.233086 0.970577 0.060430
-0.02616500 -3.89138603 -0.09543400 0.235609 0.949247 0.208371
-0.03134000 -3.89109612 -0.06263700 0.170620 0.981369 0.088335
-0.05423700 -3.88125491 -0.10277900 0.035765 0.986410 0.160364
-0.03228400 -3.89375091 -0.07781600 0.189483 0.981867 -0.005742
-0.04540000 -3.88202310 -0.10517700 0.205181 0.959718 0.191944
-0.05150600 -3.88508391 -0.09893100 0.130268 0.966045 0.223132
-0.04564900 -3.88222289 -0.10252100 0.225950 0.946250 0.231427
-0.04757000 -3.88675499 -0.09596400 0.256132 0.929716 0.264622
-0.05561700 -3.88544297 -0.09566100 0.097426 0.967933 0.231545
-0.08109700 -3.88567805 -0.09645100 -0.148885 0.985024 0.086949
-0.06841600 -3.88361192 -0.08552300 -0.021919 0.984055 0.176507
-0.05148900 -3.88185692 -0.11724400 0.080450 0.996504 0.022526
-0.12271500 -3.90328693 -0.14342900 -0.621925 0.773325 -0.123198
-0.09540300 -3.88692594 -0.13613400 -0.326543 0.943202 0.061146
-0.08881300 -3.88287401 -0.17083301 -0.481691 0.876168 -0.017443
-0.05729100 -3.87710500 -0.10616300 0.028064 0.991235 0.129096
-0.06146100 -3.88093209 -0.11891300 -0.025118 0.999680 0.003014
-0.04391000 -3.88346195 -0.11022900 0.211264 0.965594 0.151644
-0.06314500 -3.88269401 -0.11496800 -0.036899 0.998384 0.043225
-0.08496800 -3.88447595 -0.13981301 -0.302391 0.950922 0.065625
-0.02039500 -3.88819695 -0.12431400 0.322473 0.940658 0.105707
-0.04057200 -3.88111591 -0.14087801 0.160055 0.981100 0.108740
-0.04480900 -3.87678504 -0.14331999 0.100695 0.986810 0.126757
-0.05593700 -3.87901807 -0.10243100 0.035765 0.986410 0.160364
-0.01827200 -3.88696098 -0.13696800 0.302190 0.946508 0.113155
-0.01982200 -3.88676310 -0.13230500 0.346435 0.929761 0.124607
-0.02439400 -3.88764000 -0.12675500 0.334669 0.932974 0.132501
-0.01124100 -3.89193106 -0.10817300 0.296282 0.949418 0.104028
-0.03918600 -3.87969398 -0.12095500 0.193664 0.978062 0.076735
-0.01011200 -3.88907790 -0.14159000 0.359659 0.925815 0.116240
-0.01212500 -3.88934898 -0.13834199 0.342275 0.931369 0.124092
-0.04448000 -3.88189793 -0.11438700 0.162825 0.980620 0.108958
-0.03204600 -3.88048792 -0.12200500 0.263570 0.954945 0.136421
-0.02765200 -3.88679695 -0.11773100 0.306215 0.942927 0.130850
-0.02618600 -3.87625599 -0.16727699 0.386331 0.901439 0.195336
-0.02372500 -3.87826395 -0.16794799 0.397797 0.896137 0.196713
-0.02562200 -3.87781405 -0.17021500 0.348093 0.924054 0.157970
-0.01669800 -3.89202094 -0.11801200 0.347484 0.931582 0.106814
-0.02970700 -3.88106990 -0.14980499 0.269816 0.919106 0.287130
-0.02429700 -3.88938093 -0.11963100 0.302331 0.944617 0.127651
-0.02269700 -3.88855696 -0.11122500 0.286807 0.944696 0.159035
-0.00575000 -3.89610600 -0.09689800 0.315384 0.929331 0.192034
-0.02980800 -3.88052106 -0.12561800 0.266417 0.957803 0.107867
-0.01821400 -3.89116406 -0.11363400 0.329682 0.934328 0.135430
-0.01610000 -3.88463306 -0.16091500 0.472938 0.868751 0.146975
-0.02695800 -3.87398505 -0.16626300 0.304464 0.927555 0.216665
-0.01973700 -3.87898803 -0.17352100 0.444735 0.879264 0.170603
-0.01131600 -3.87925005 -0.20814300 0.394799 0.909021 0.133473
-0.02787800 -3.87201190 -0.16072901 0.266129 0.926472 0.266129
-0.02459300 -3.87653494 -0.16281800 0.339215 0.913715 0.223737
-0.02245600 -3.88802195 -0.12884299 0.343146 0.931007 0.124408
-0.01735600 -3.87613606 -0.18050499 0.435250 0.886406 0.157615
-0.01908100 -3.88452697 -0.15634300 0.420448 0.888905 0.181855
-0.00765000 -3.88724208 -0.16996700 0.337164 0.920444 0.197746
-0.01585700 -3.87280393 -0.21867201 0.344358 0.927969 0.142445
-0.01224300 -3.88417196 -0.17780299 0.383753 0.890486 0.244476
-0.04137500 -3.88041210 -0.15127499 0.017579 0.978585 0.205093
-0.09682000 -3.88427091 -0.20209600 -0.329812 0.943592 0.029288
-0.09744000 -3.88507891 -0.19626801 -0.317071 0.940420 0.122781
-0.06289400 -3.87957096 -0.15771200 -0.052840 0.985174 0.163217
-0.07782000 -3.88017297 -0.17803000 -0.325208 0.945015 -0.034434
-0.06806700 -3.87550306 -0.21614000 -0.302261 0.952311 -0.041735
-0.07769600 -3.87821102 -0.20883200 -0.407641 0.912214 -0.041162
-0.05312600 -3.87166500 -0.19300801 -0.026987 0.996352 0.080960
-0.10642100 -3.89360499 -0.18438600 -0.514470 0.824688 0.234967
-0.10773100 -3.88531995 -0.20143400 -0.454041 0.890972 0.003948
-0.09994400 -3.89009404 -0.17410199 -0.481944 0.875645 0.031225
-0.05498600 -3.88103604 -0.12813801 0.022176 0.997940 0.060193
-0.07529500 -3.87449908 -0.15771000 -0.175101 0.955702 0.236586
-0.09966700 -3.88970208 -0.19011199 -0.416040 0.889011 0.191232
-0.09383000 -3.88606310 -0.19200000 -0.325423 0.928783 0.177377
-0.12201500 -3.90349507 -0.18644901 -0.654537 0.741808 0.145954
-0.10234300 -3.89187694 -0.16263600 -0.500853 0.865355 0.017550
-0.12139400 -3.90054488 -0.19699900 -0.705752 0.702830 0.089132
-0.11353900 -3.89044309 -0.22639100 -0.614396 0.784981 0.079510
-0.11358600 -3.89621305 -0.18827400 -0.607029 0.767668 0.205432
-0.10661400 -3.89243102 -0.17467301 -0.525576 0.849007 0.054370
-0.12176100 -3.90244794 -0.15319200 -0.622565 0.764952 -0.165109
-0.08355000 -3.88103604 -0.19623600 -0.353087 0.928387 0.115878
-0.12295100 -3.90238500 -0.20322500 -0.752990 0.656562 -0.043960
-0.12033500 -3.89789796 -0.13315800 -0.586450 0.808654 -0.046410
-0.13089100 -3.90947008 -0.12745599 -0.709863 0.704328 -0.004151
-0.11956200 -3.90210199 -0.10012000 -0.589702 0.806442 0.043629
-0.11834200 -3.89541101 -0.12724900 -0.496537 0.867931 0.012111
-0.12831500 -3.90413094 -0.11907700 -0.662672 0.742016 0.101384
-0.09951200 -3.89047790 -0.10921100 -0.393458 0.917174 -0.063114
-0.10792000 -3.89485693 -0.10230900 -0.486956 0.873302 -0.014756
-0.11619800 -3.89690995 -0.14339399 -0.550824 0.821040 -0.149955
-0.10004100 -3.89156294 -0.12602399 -0.374393 0.926130 0.045978
-0.09917800 -3.88995409 -0.09782000 -0.360440 0.932527 0.021806
-0.08218500 -3.87931800 -0.16429500 -0.371596 0.928352 0.008939
-0.07780400 -3.87485504 -0.16024201 -0.267509 0.955388 0.125189
-0.11953400 -3.89933801 -0.14820200 -0.583745 0.800607 -0.135167
-0.12258400 -3.89828610 -0.12863600 -0.601533 0.798847 -0.001370
-0.11540800 -3.89529204 -0.13239001 -0.456187 0.889764 -0.014630
-0.11413200 -3.89211512 -0.19597100 -0.599920 0.791541 0.116446
-0.11729000 -3.89717102 -0.19444200 -0.634741 0.750983 0.182010
-0.10947300 -3.89284897 -0.22001100 -0.578118 0.815925 -0.006834
-0.10964200 -3.88641000 -0.20230401 -0.496272 0.868141 0.006688
-0.09391600 -3.88401198 -0.23259500 -0.314292 0.948007 0.050030
-0.07826300 -3.87900996 -0.20110400 -0.355809 0.930475 0.087274
-0.06295300 -3.87125206 -0.23696500 -0.256994 0.947750 0.189006
-0.05148400 -3.87106299 -0.21650000 -0.074020 0.995404 0.060763
-0.04454500 -3.87228298 -0.19994800 0.065719 0.994699 0.079086
-0.05744600 -3.87017989 -0.21889600 -0.176909 0.983982 -0.021969
-0.07424900 -3.87812805 -0.22152600 -0.368355 0.929289 -0.027142
-0.06848900 -3.87562704 -0.19627500 -0.271370 0.955694 0.114054
-0.07737700 -3.87698102 -0.23082800 -0.378831 0.906025 0.188695
-0.07825800 -3.88145804 -0.14984700 -0.258505 0.952318 0.162068
-0.06879000 -3.87709808 -0.16181700 -0.152773 0.981417 0.116108
-0.06806100 -3.87945604 -0.15746000 -0.139034 0.975744 0.169096
-0.07106400 -3.88040590 -0.15027601 -0.141031 0.977234 0.158504
-0.06278300 -3.87775898 -0.16149800 -0.046087 0.982001 0.183165
-0.07818100 -3.87918901 -0.15324800 -0.269598 0.950971 0.151565
-0.03345500 -3.87607288 -0.16064100 0.154298 0.958757 0.238700
-0.05507200 -3.87483311 -0.18351300 -0.109056 0.992747 0.050593
-0.01664300 -3.86792493 -0.25367701 0.291764 0.941040 0.171223
-0.02078100 -3.86508203 -0.25187299 0.244207 0.948178 0.203278
-0.07192000 -3.87547588 -0.20160100 -0.273210 0.959412 0.069891
-0.06403200 -3.87095308 -0.20558999 -0.229960 0.972158 0.045019
-0.03451700 -3.85878706 -0.27011999 0.101725 0.979253 0.175260
-0.03140100 -3.86304092 -0.27542099 0.181419 0.968854 0.168552
-0.05998300 -3.87464404 -0.18997400 -0.176646 0.972189 0.153771
-0.04744400 -3.87324405 -0.18224999 0.043828 0.992311 0.115751
-0.02952900 -3.87388301 -0.20958599 0.156997 0.983927 0.085090
-0.05267400 -3.86941099 -0.18892100 -0.067593 0.990981 0.115710
-0.04190300 -3.87000489 -0.19557001 0.064256 0.996506 0.053365
-0.05374300 -3.87321806 -0.16198801 0.041273 0.982287 0.182779
-0.04105200 -3.87409496 -0.18242000 0.106996 0.984600 0.138253
-0.05479500 -3.87273598 -0.16622099 -0.003331 0.989358 0.145461
-0.03693000 -3.87178206 -0.22450399 0.042820 0.970181 0.238569
-0.04306600 -3.86969495 -0.21702801 0.059734 0.992931 0.102562
-0.01128500 -3.87450290 -0.21590100 0.378326 0.909411 0.172745
-0.01991000 -3.87371707 -0.20788901 0.309332 0.941504 0.133729
-0.01759200 -3.87484193 -0.20165300 0.290361 0.953674 0.078720
-0.01833900 -3.87374306 -0.19060899 0.329543 0.937517 0.111641
-0.01527200 -3.87538600 -0.20907600 0.388047 0.911980 0.133085
-0.01495800 -3.87661910 -0.19162300 0.372063 0.918313 0.135169
-0.01930000 -3.86926293 -0.23918299 0.181070 0.946193 0.268202
-0.03503200 -3.86579204 -0.23943600 0.071214 0.949085 0.306866
-0.03449300 -3.87506199 -0.19284500 0.119498 0.991267 0.055766
-0.05209800 -3.87821388 -0.15717800 0.024099 0.985764 0.166398
-0.01183500 -3.87954903 -0.19084799 0.442873 0.887170 0.129587
-0.03965300 -3.88230300 -0.13051100 0.195410 0.977049 0.084800
-0.02967900 -3.87740111 -0.17207500 0.214802 0.969785 0.115662
-0.02863000 -3.87389112 -0.15859000 0.269480 0.925359 0.266629
-0.02994000 -3.87629199 -0.16783699 0.208661 0.969059 0.131853
-0.01959500 -3.88111210 -0.16880800 0.433513 0.883082 0.179536
-0.01197600 -3.88906908 -0.13037200 0.354209 0.923722 0.145851
-0.02036100 -3.88501501 -0.15130600 0.394081 0.897224 0.199222
-0.04245400 -3.87807202 -0.16326500 0.053226 0.982908 0.176237
-0.05749300 -3.87862992 -0.15343501 0.028773 0.986326 0.162278
-0.05376100 -3.87522697 -0.17305300 0.021682 0.987101 0.158621
-0.05035700 -3.87577701 -0.16877100 0.045390 0.985783 0.161776
-0.04019800 -3.88066792 -0.15289800 -0.001152 0.979955 0.199215
-0.04622300 -3.87684894 -0.16252300 0.003394 0.985297 0.170815
-0.05027100 -3.87882304 -0.14915800 0.062415 0.985684 0.156626
-0.05556000 -3.87464905 -0.16937099 0.012345 0.988721 0.149262
-0.05751500 -3.88164592 -0.11345400 -0.011452 0.998411 0.055178
-0.05639200 -3.87998295 -0.11067000 0.024972 0.995618 0.090116
-0.05265100 -3.88174891 -0.11176500 0.059136 0.994150 0.090377
-0.04668900 -3.87905312 -0.14140899 0.113526 0.985881 0.123086
-0.05712600 -3.88031101 -0.13371301 0.023066 0.994040 0.106544
-0.05720700 -3.87925100 -0.10166500 0.044868 0.988250 0.146109
-0.06885400 -3.88379693 -0.10281900 -0.096527 0.989688 0.105830
-0.05647500 -3.87758303 -0.10878300 0.029555 0.995016 0.095233
-0.05527300 -3.87771010 -0.10760600 0.028064 0.991235 0.129096
-0.05320100 -3.88037705 -0.10894000 0.062243 0.992496 0.105248
-0.04867400 -3.88100195 -0.13756900 0.131320 0.988966 0.068565
-0.04957000 -3.88312101 -0.10776200 0.139540 0.979252 0.146950
-0.02572800 -3.88268089 -0.12612900 0.322835 0.938789 0.120219
-0.01489200 -3.88468099 -0.17388199 0.455606 0.864905 0.210625
-0.07703300 -3.88952994 -0.01422900 -0.009571 0.996419 0.084010
-0.01400700 -3.89831495 -0.02910500 0.367998 0.922062 0.119909
-0.04735000 -3.89372897 -0.00959400 0.243647 0.968405 0.053182
-0.06681600 -3.88993096 -0.02353700 0.068156 0.989988 0.123604
-0.05209100 -3.89358997 -0.01003500 0.211167 0.976197 0.049474
-0.07031900 -3.88355899 -0.11373900 -0.140201 0.988358 0.059093
